-32.37659836 369.71099854 -108.73699951 12.000000
-40.78919983 439.74099731 -112.21299744 12.000000
-51.32609940 492.21701050 -114.72899628 12.000000
-64.70529938 520.26397705 -91.64710236 12.000000
-54.89830017 483.70199585 -94.24320221 12.000000
-44.73580170 480.27099609 -132.74499512 12.000000
-62.54439926 519.70001221 -97.23390198 12.000000
-51.04589844 517.39001465 -120.24900055 12.000000
-54.29389954 486.72799683 -99.72039795 12.000000
-53.18009949 485.21600342 -106.14399719 12.000000
-54.50859833 491.13101196 -104.30200195 12.000000
-66.86370087 533.21600342 -93.73290253 12.000000
-45.44929886 528.37097168 -129.80000305 12.000000
-35.34220123 414.63800049 -111.29599762 12.000000
-50.27909851 501.71200562 -124.20899963 12.000000
-54.79639816 505.20599365 -108.71299744 12.000000
-61.45029831 509.21499634 -93.77529907 12.000000
-57.32099915 508.29098511 -104.18800354 12.000000
-75.36650085 549.78601074 -82.69930267 12.000000
-46.57699966 506.11199951 -135.91900635 12.000000
-55.89479828 524.70800781 -110.74299622 12.000000
-75.11309814 560.27600098 -90.74520111 12.000000
-68.08769989 555.61199951 -102.86199951 12.000000
-79.87409973 560.38800049 -77.27799988 12.000000
-97.68360138 609.87500000 -66.70739746 12.000000
-53.37659836 460.20999146 -93.73889923 12.000000
-51.96889877 452.75100708 -94.93759918 12.000000
-49.28150177 457.70001221 -98.11799622 12.000000
-50.85240173 444.70800781 -96.20020294 12.000000
-47.24240112 449.23400879 -98.56980133 12.000000
-47.89120102 431.72299194 -98.26979828 12.000000
-52.36869812 466.21499634 -95.23229980 12.000000
-46.41730118 425.73599243 -98.80059814 12.000000
-56.77140045 489.76400757 -94.68589783 12.000000
-56.39490128 472.70498657 -91.78179932 12.000000
-35.92670059 394.23599243 -104.82900238 12.000000
-53.43370056 478.18701172 -98.23639679 12.000000
-51.76990128 472.20098877 -96.16889954 12.000000
-31.34079933 363.67700195 -109.66000366 12.000000
-47.21559906 453.27398682 -103.20500183 12.000000
-37.97240067 427.62200928 -110.76999664 12.000000
-47.70159912 460.24398804 -103.67600250 12.000000
-46.31900024 459.73001099 -111.22399902 12.000000
-44.74140167 452.78100586 -109.71399689 12.000000
-63.31809998 530.22802734 -99.71209717 12.000000
-61.15769958 513.62799072 -98.30300140 12.000000
-49.82920074 466.22799683 -101.71900177 12.000000
-31.66650009 403.46499634 -114.15699768 12.000000
-7.69264984 252.18699646 -108.24700165 12.000000
-7.67128992 255.74099731 -113.22399902 12.000000
-8.76786995 362.78100586 -127.08599854 12.000000
-8.87710953 356.21200562 -127.23699951 12.000000
-11.35099983 345.70098877 -126.18599701 12.000000
-9.73491001 376.87701416 -129.44000244 12.000000
-12.92660046 323.17800903 -124.30500031 12.000000
-15.58189964 155.38699341 -146.47700500 12.000000
-18.45280075 392.20098877 -70.15100098 12.000000
-10.33740044 421.30899048 -55.73509979 12.000000
-11.37559986 439.21499634 -48.74539948 12.000000
-3.34808993 415.75399780 -52.90000153 12.000000
-14.48470020 375.19699097 -71.54270172 12.000000
-33.85409927 406.71899414 -83.26470184 12.000000
-15.84210014 277.82199097 -116.30500031 12.000000
-6.96002007 407.32998657 -141.78300476 12.000000
-16.42320061 264.26000977 -127.33300018 12.000000
-12.26259995 414.34698486 -139.00000000 12.000000
-12.25529957 419.40899658 -142.55499268 12.000000
-16.89620018 277.76098633 -125.84200287 12.000000
-15.31569958 283.68798828 -125.10399628 12.000000
-15.33570004 299.73699951 -124.16200256 12.000000
-14.67049980 292.70599365 -124.55100250 12.000000
-1.27960002 388.75601196 -139.54699707 12.000000
-18.23940086 239.21800232 -130.33900452 12.000000
12.12800026 195.23100281 -105.75599670 12.000000
-14.90289974 305.72500610 -123.27100372 12.000000
-11.77420044 310.30700684 -126.05300140 12.000000
-0.81908900 407.73098755 -146.68699646 12.000000
-5.90677023 416.13101196 -146.32499695 12.000000
-6.68519020 371.37600708 -129.58700562 12.000000
-3.91190004 401.83499146 -142.25799561 12.000000
-10.90799999 403.20800781 -135.26400757 12.000000
-10.62530041 337.39001465 -125.56800079 12.000000
-6.70733023 388.20199585 -135.01800537 12.000000
-44.85749817 461.23199463 -61.25569916 12.000000
-26.07430077 439.62500000 -57.45029831 12.000000
-15.71280003 406.84399414 -132.08000183 12.000000
-61.86640167 555.23699951 -113.20899963 12.000000
-61.73789978 560.29602051 -117.13899994 12.000000
-14.94190025 146.49800110 -146.48300171 12.000000
-48.11700058 415.00799561 -103.24500275 12.000000
-11.18140030 301.21600342 -128.60200500 12.000000
-42.74760056 446.35900879 -111.17299652 12.000000
4.07560015 327.21301270 -144.28900146 12.000000
-48.16419983 464.73999023 -107.73799896 12.000000
-47.52989960 468.23999023 -112.75399780 12.000000
-49.81809998 470.71899414 -106.73999786 12.000000
-49.24110031 474.23699951 -112.22599792 12.000000
-51.34550095 478.21701050 -107.72499847 12.000000
-36.28400040 422.80599976 -114.13600159 12.000000
-50.61169815 482.26400757 -112.26699829 12.000000
-58.44079971 510.66198730 -36.17250061 12.000000
-54.03150177 497.84899902 -112.17500305 12.000000
-39.38180161 433.70800781 -111.73999786 12.000000
-42.66479874 451.21600342 -115.23699951 12.000000
-69.94750214 514.68402100 -71.75399780 12.000000
-30.41939926 415.16299438 -74.19670105 12.000000
-60.10649872 527.84997559 -104.52899933 12.000000
-64.53620148 526.16900635 -95.28510284 12.000000
-73.67250061 528.72601318 -71.65380096 12.000000
-74.77050018 527.76397705 -65.74770355 12.000000
-66.88359833 528.20800781 -89.73799896 12.000000
-76.55259705 533.64398193 -65.75859833 12.000000
-64.13749695 490.24899292 -90.74839783 12.000000
-62.09740067 535.24401855 -104.62899780 12.000000
-69.14540100 536.83001709 -88.69670105 12.000000
-67.02539825 537.28302002 -98.78700256 12.000000
-68.69460297 540.26397705 -93.71450043 12.000000
-59.79499817 517.71502686 -102.69799805 12.000000
-64.23310089 547.25598145 -107.27100372 12.000000
-68.23739624 547.22900391 -99.66690063 12.000000
-71.75029755 555.69702148 -96.70269775 12.000000
-76.65899658 562.28698730 -85.22190094 12.000000
-66.29270172 557.74902344 -109.20600128 12.000000
-70.81020355 564.74298096 -104.72499847 12.000000
-74.82790375 563.71997070 -95.72010040 12.000000
-86.39669800 568.70898438 -65.24389648 12.000000
-69.18430328 567.74597168 -109.67900085 12.000000
-73.41079712 569.70098877 -100.25099945 12.000000
-70.94719696 542.67797852 -87.75420380 12.000000
-76.49210358 569.69396973 -94.78309631 12.000000
-77.86599731 568.21600342 -88.73410034 12.000000
-88.70339966 574.24499512 -63.14929962 12.000000
-79.91570282 571.69897461 -84.24230194 12.000000
-71.64330292 573.72698975 -108.62100220 12.000000
-74.75559998 575.74102783 -103.21499634 12.000000
-79.11199951 575.25799561 -91.67009735 12.000000
-81.90779877 577.70501709 -84.24449921 12.000000
-87.90090179 578.69702148 -76.23470306 12.000000
-79.64949799 551.87097168 -71.10140228 12.000000
-87.66220093 578.26800537 -67.67690277 12.000000
-90.54250336 581.17999268 -63.25939941 12.000000
-82.22080231 552.78198242 -65.19360352 12.000000
-92.33270264 581.72399902 -57.22219849 12.000000
-73.62879944 585.39801025 -111.56199646 12.000000
-77.29579926 583.24401855 -103.20200348 12.000000
-79.71320343 586.79101563 -98.70929718 12.000000
-92.41649628 589.69000244 -64.23739624 12.000000
-80.61679840 584.79199219 -92.67880249 12.000000
-95.99310303 589.87799072 -59.25419998 12.000000
-84.20030212 587.26300049 -86.23419952 12.000000
-86.15229797 587.30297852 -80.11699677 12.000000
-85.16790009 594.44799805 -91.65160370 12.000000
-97.79920197 597.71600342 -57.73709869 12.000000
-100.33599854 596.69702148 -51.72060013 12.000000
-86.58509827 592.87402344 -85.71050262 12.000000
-103.01399994 597.64898682 -44.79669952 12.000000
-72.79229736 590.26599121 -115.18399811 12.000000
-80.84269714 566.32397461 -81.65059662 12.000000
-78.71479797 592.30999756 -107.69899750 12.000000
-93.80410004 594.23797607 -72.76679993 12.000000
-82.30339813 593.26599121 -99.23480225 12.000000
-94.13059998 595.75000000 -64.61530304 12.000000
-92.80200195 574.73699951 -53.23279953 12.000000
-93.73600006 600.26501465 -69.79239655 12.000000
-77.27420044 544.29400635 -72.17790222 12.000000
-89.66570282 598.35900879 -84.23480225 12.000000
-64.56559753 541.05798340 -103.32800293 12.000000
-76.58039856 594.83502197 -114.05899811 12.000000
-108.17500305 631.91802979 -68.69819641 12.000000
-118.15899658 638.29498291 -32.70230103 12.000000
-85.36530304 602.21398926 -101.73600006 12.000000
-100.11000061 607.53198242 -60.81760025 12.000000
-95.63120270 626.81298828 -102.72100067 12.000000
-122.20200348 640.27398682 -20.68479919 12.000000
-101.54100037 608.17498779 -54.69800186 12.000000
-106.26799774 633.27197266 -62.70610046 12.000000
-97.21559906 628.78399658 -97.21779633 12.000000
-109.43599701 634.72399902 -54.23469925 12.000000
-86.00869751 600.86401367 -95.14929962 12.000000
-91.93879700 623.75500488 -118.70899963 12.000000
-99.22229767 629.85302734 -90.26119995 12.000000
-82.87599945 601.21099854 -109.73699951 12.000000
-91.61889648 603.61499023 -87.28859711 12.000000
-105.28299713 608.22698975 -46.71979904 12.000000
-102.19699860 629.77502441 -83.19039917 12.000000
-93.79620361 625.76898193 -113.19899750 12.000000
-107.62899780 610.30200195 -41.55830002 12.000000
-93.24410248 605.28100586 -81.21839905 12.000000
-103.98799896 630.61798096 -77.23529816 12.000000
-110.44300079 610.67602539 -36.24909973 12.000000
-97.70929718 605.82702637 -72.73179626 12.000000
-121.75599670 638.12902832 -26.70999908 12.000000
-112.65399933 638.32000732 -48.14170074 12.000000
-116.95800018 637.24499512 -38.76789856 12.000000
-96.14749908 629.36901855 -108.74099731 12.000000
-88.71559906 606.79797363 -93.67620087 12.000000
-69.70580292 577.34301758 -113.15799713 12.000000
-96.34909821 585.22601318 -51.73270035 12.000000
-99.14649963 585.83502197 -43.17269897 12.000000
-111.74400330 615.25500488 -32.23139954 12.000000
-105.54499817 636.20397949 -74.71140289 12.000000
-104.76399994 612.73901367 -50.70429993 12.000000
-81.38439941 604.20599365 -117.23999786 12.000000
-92.70890045 629.70800781 -118.73100281 12.000000
-124.20800018 644.79302979 -17.21199989 12.000000
-95.34970093 610.22399902 -78.24069977 12.000000
-97.87180328 632.71301270 -102.73699951 12.000000
-102.24199677 635.35198975 -86.64839935 12.000000
-85.87950134 605.71002197 -106.73600006 12.000000
-108.30200195 638.74200439 -65.26069641 12.000000
-121.61799622 644.87402344 -28.54430008 12.000000
-93.63009644 609.62200928 -88.14360046 12.000000
-103.26799774 614.73602295 -56.21829987 12.000000
-100.25399780 636.79901123 -97.74549866 12.000000
-99.08439636 590.82501221 -48.62340164 12.000000
-107.69899750 617.24798584 -46.69359970 12.000000
-110.95300293 616.69799805 -38.27539825 12.000000
-100.37400055 612.71502686 -72.24189758 12.000000
-109.76300049 640.26702881 -58.21189880 12.000000
-111.96800232 643.69201660 -53.76919937 12.000000
-101.16400146 615.77099609 -62.12620163 12.000000
-88.47160339 609.16802979 -102.23799896 12.000000
-116.10900116 643.68499756 -42.64120102 12.000000
-95.71009827 633.81298828 -115.16300201 12.000000
-114.63400269 619.31402588 -27.73380089 12.000000
-106.23000336 639.28997803 -80.18869781 12.000000
-123.82399750 650.21997070 -23.23360062 12.000000
-90.65730286 589.85797119 -76.08879852 12.000000
-113.37500000 621.21197510 -33.73609924 12.000000
-103.35299683 641.21997070 -91.23719788 12.000000
-94.58470154 636.29302979 -121.21600342 12.000000
-91.03659821 613.64300537 -98.25589752 12.000000
-119.14399719 646.83599854 -36.62969971 12.000000
-77.85870361 539.71600342 -67.73139954 12.000000
-104.26399994 620.23602295 -58.68560028 12.000000
-100.12100220 638.37799072 -104.15899658 12.000000
-92.78060150 615.73699951 -92.70359802 12.000000
-105.17400360 619.41198730 -52.66230011 12.000000
-96.85549927 614.71997070 -84.73090363 12.000000
-108.21900177 642.26599121 -74.72940063 12.000000
-98.30169678 616.75402832 -79.23560333 12.000000
-110.32700348 621.21697998 -42.21590042 12.000000
-87.25659943 611.75097656 -113.69200134 12.000000
-88.60140228 611.57397461 -107.75000000 12.000000
-97.91539764 638.96600342 -113.01599884 12.000000
-125.61799622 650.72198486 -15.22780037 12.000000
-114.31099701 646.23199463 -48.70679855 12.000000
-112.23600006 644.34197998 -68.69470215 12.000000
-104.26200104 594.26501465 -38.69710159 12.000000
-97.69049835 641.85101318 -122.79499817 12.000000
-91.69390106 617.78002930 -108.21800232 12.000000
-73.17250061 579.73602295 -108.63800049 12.000000
-98.30460358 643.73699951 -116.72599792 12.000000
-100.43299866 622.20800781 -77.22779846 12.000000
-117.92600250 650.69097900 -41.74890137 12.000000
-100.86599731 643.71002197 -107.23300171 12.000000
-106.37100220 646.71398926 -89.73670197 12.000000
-111.11000061 648.35699463 -73.15720367 12.000000
-103.19300079 645.25897217 -100.73500061 12.000000
-108.82900238 623.21899414 -48.71569824 12.000000
-93.13490295 619.27801514 -100.22399902 12.000000
-106.52899933 645.09899902 -83.83370209 12.000000
-115.64700317 626.78302002 -31.12129974 12.000000
-97.68000031 620.78601074 -86.62300110 12.000000
-106.37400055 625.71301270 -55.73580170 12.000000
-87.38749695 616.70898438 -118.74199677 12.000000
-115.02400208 650.68499756 -66.19450378 12.000000
-95.68650055 623.31201172 -93.25610352 12.000000
-90.48419952 597.13897705 -77.77860260 12.000000
-79.97450256 545.18499756 -66.24109650 12.000000
-111.74299622 628.77301025 -43.68679810 12.000000
-114.44599915 628.23797607 -37.76990128 12.000000
-121.18099976 655.27398682 -37.16839981 12.000000
-107.71800232 602.28100586 -37.71500015 12.000000
-118.21900177 628.22399902 -25.24780083 12.000000
-61.80059814 541.72698975 -108.72399902 12.000000
-70.30609894 585.25299072 -117.71399689 12.000000
-105.83799744 650.23101807 -95.22059631 12.000000
-67.24890137 571.77099609 -114.17099762 12.000000
-101.91200256 649.20501709 -109.74800110 12.000000
-99.58869934 647.53997803 -121.19699860 12.000000
-101.78800201 626.69000244 -73.20580292 12.000000
-102.48000336 602.25701904 -49.25830078 12.000000
-82.21499634 597.40899658 -103.71299744 12.000000
-103.57800293 626.32397461 -62.66939926 12.000000
-96.29139709 603.27502441 -64.69180298 12.000000
-104.83100128 603.22198486 -43.21580124 12.000000
-100.91400146 650.69299316 -116.24400330 12.000000
-112.76799774 653.76800537 -75.23290253 12.000000
-105.23999786 651.78997803 -101.70899963 12.000000
-108.51799774 652.54797363 -89.74259949 12.000000
-127.20300293 657.95599365 -14.33670044 12.000000
-58.24990082 531.71899414 -109.70300293 12.000000
-102.81300354 654.73901367 -112.23799896 12.000000
-114.80300140 656.76300049 -69.75199890 12.000000
-102.64700317 655.25500488 -119.78600311 12.000000
-111.20700073 657.26702881 -86.75209808 12.000000
-70.31459808 590.40997314 -121.96399689 12.000000
-78.87640381 556.13897705 -82.78269958 12.000000
-107.22299957 657.77001953 -102.68900299 12.000000
-108.17099762 655.85998535 -95.73269653 12.000000
-112.91999817 657.18103027 -80.25260162 12.000000
-92.91609955 631.22900391 -124.69699860 12.000000
-125.79599762 662.26599121 -23.23040009 12.000000
-56.36619949 514.71002197 -107.23500061 12.000000
-77.36640167 578.71502686 -97.73169708 12.000000
-120.93699646 661.68798828 -40.75239944 12.000000
-77.72859955 604.33898926 -122.63200378 12.000000
-77.17289734 599.89398193 -118.62599945 12.000000
-127.17600250 664.78002930 -17.69050026 12.000000
-104.36299896 661.71398926 -118.23799896 12.000000
-105.63899994 661.76000977 -110.70800018 12.000000
-113.12899780 662.22302246 -83.74559784 12.000000
-117.19799805 662.28302002 -73.23190308 12.000000
-109.97000122 661.16601563 -98.25199890 12.000000
-119.84999847 662.23400879 -65.24030304 12.000000
-111.92299652 662.69000244 -92.25389862 12.000000
-124.92299652 664.71600342 -33.23540115 12.000000
-63.02130127 566.64099121 -119.78900146 12.000000
-80.31140137 609.75000000 -124.22100067 12.000000
-123.42099762 667.16998291 -39.27410126 12.000000
-106.52799988 667.61602783 -117.20300293 12.000000
-115.35099792 667.70397949 -87.25170135 12.000000
-117.80699921 667.23797607 -78.72149658 12.000000
-107.68599701 667.76098633 -110.75299835 12.000000
-119.27700043 668.25701904 -72.73229980 12.000000
-125.57700348 671.05499268 -31.16679955 12.000000
-126.65299988 669.73400879 -23.73850060 12.000000
-113.22899628 668.28497314 -97.69889832 12.000000
-84.76950073 617.28601074 -125.22200012 12.000000
-125.46099854 673.16400146 -37.27809906 12.000000
-128.30999756 674.21502686 -19.22940063 12.000000
-127.90499878 676.70001221 -26.22850037 12.000000
-122.77799988 671.71899414 -62.31940079 12.000000
-115.81300354 672.26599121 -91.72949982 12.000000
-122.57499695 673.95501709 -56.71480179 12.000000
-117.70500183 672.27502441 -83.75689697 12.000000
-114.94100189 675.22100830 -101.75199890 12.000000
-117.20500183 677.32299805 -96.19490051 12.000000
-118.47499847 678.15301514 -90.22899628 12.000000
-120.66999817 677.82501221 -84.26750183 12.000000
-123.30699921 676.72302246 -72.23290253 12.000000
-125.35500336 677.18402100 -62.74879837 12.000000
-110.36299896 678.71801758 -114.24099731 12.000000
-111.79299927 675.72998047 -107.71600342 12.000000
-126.45400238 680.66302490 -42.21279907 12.000000
-127.68299866 680.79699707 -35.18479919 12.000000
-89.51740265 626.16699219 -124.78299713 12.000000
-125.12100220 680.88897705 -68.24259949 12.000000
-116.10700226 632.56097412 -33.20090103 12.000000
-114.94300079 680.69201660 -104.26799774 12.000000
-126.99400330 683.69897461 -52.21409988 12.000000
-123.18000031 680.84002686 -78.63929749 12.000000
-127.67400360 686.24102783 -39.70190048 12.000000
-126.82900238 685.22399902 -46.22980118 12.000000
-118.28800201 683.23297119 -98.20909882 12.000000
-121.14800262 683.33502197 -88.76439667 12.000000
-65.73139954 564.13098145 -114.29499817 12.000000
-127.27799988 686.76202393 -71.73059845 12.000000
-84.10780334 611.01202393 -118.90899658 12.000000
-124.66000366 685.87500000 -83.21859741 12.000000
-128.89199829 689.20599365 -50.73149872 12.000000
-114.45700073 685.63500977 -112.23300171 12.000000
-127.84999847 687.23400879 -65.72979736 12.000000
-116.67400360 686.80102539 -106.69000244 12.000000
-121.02200317 687.64697266 -94.78749847 12.000000
-129.83900452 691.73199463 -42.23040009 12.000000
-129.92300415 690.69598389 -36.24110031 12.000000
-119.48400116 688.64202881 -100.76000214 12.000000
-133.22099304 698.83398438 -13.36180019 12.000000
-124.67400360 690.34899902 -87.71939850 12.000000
-133.17399597 697.28198242 -24.85759926 12.000000
-118.97499847 690.60699463 -111.71299744 12.000000
-67.42299652 581.71197510 -121.74700165 12.000000
-129.70799255 692.33001709 -69.23519897 12.000000
-131.84800720 694.26397705 -52.74300003 12.000000
-127.52700043 692.16699219 -81.22820282 12.000000
-57.82559967 548.26501465 -117.68399811 12.000000
-123.95099640 693.15002441 -94.25579834 12.000000
-133.24400330 693.78497314 -61.80479813 12.000000
-133.77799988 699.29901123 -55.72900009 12.000000
-132.23199463 697.76397705 -70.73639679 12.000000
-128.93899536 696.64697266 -85.21690369 12.000000
-123.74600220 695.30603027 -110.30000305 12.000000
-58.23580170 555.44299316 -120.03900146 12.000000
-69.87960052 594.71301270 -126.23999786 12.000000
-108.08499908 672.67102051 -114.21600342 12.000000
-126.31099701 698.25201416 -97.22660065 12.000000
-72.82240295 600.25000000 -128.22799683 12.000000
-128.99499512 699.44598389 -91.14520264 12.000000
-133.77900696 700.76800537 -65.24629974 12.000000
-137.03599548 702.12701416 -60.18009949 12.000000
-127.93699646 699.58502197 -109.69499969 12.000000
-73.31169891 595.87799072 -121.09799957 12.000000
-134.91799927 703.19000244 -70.73970032 12.000000
-132.14500427 701.74499512 -86.22460175 12.000000
-77.24559784 606.49700928 -129.21600342 12.000000
-129.39999390 702.69598389 -100.23400116 12.000000
-94.27919769 601.78100586 -75.63210297 12.000000
-136.48699951 706.63897705 -78.18879700 12.000000
-132.30700684 705.78399658 -95.20439911 12.000000
-138.40800476 709.19396973 -48.22430038 12.000000
-134.52299500 707.44299316 -89.73120117 12.000000
-137.06300354 708.60198975 -72.25869751 12.000000
-65.83979797 590.23602295 -128.72700500 12.000000
-134.21099854 709.33398438 -101.28700256 12.000000
-140.82000732 712.23999023 -56.76060104 12.000000
-137.62600708 710.91101074 -85.27850342 12.000000
-140.25000000 714.27398682 -73.73999786 12.000000
-110.17099762 666.16699219 -104.18199921 12.000000
-93.28029633 570.26000977 -41.18920135 12.000000
-108.51899719 605.67901611 -32.72129822 12.000000
-149.79200745 736.23699951 -33.25600052 12.000000
-137.28999329 712.30297852 -106.28700256 12.000000
-149.23699951 729.83001709 -101.28199768 12.000000
-109.12599945 603.88397217 -26.72680092 12.000000
-120.29599762 631.75000000 -20.20999908 12.000000
-119.76200104 626.73297119 -16.74640083 12.000000
-133.68600464 707.37097168 -107.32900238 12.000000
-108.52600098 602.64202881 -20.21629906 12.000000
-152.65400696 738.30798340 -45.30049896 12.000000
-154.61199951 738.90802002 -80.26239777 12.000000
-153.55299377 740.62701416 -52.15259933 12.000000
-112.60600281 614.13702393 -25.24010086 12.000000
-154.83900452 740.72998047 -69.74669647 12.000000
-112.64299774 611.79901123 -19.69260025 12.000000
-146.49200439 724.60900879 -103.04699707 12.000000
-141.72999573 717.36297607 -85.71289825 12.000000
-153.65499878 736.36102295 -99.82409668 12.000000
-145.33299255 723.80700684 -31.73870087 12.000000
-154.26100159 738.79101563 -86.73110199 12.000000
-156.63400269 746.34698486 -32.71099854 12.000000
-154.42599487 740.18298340 -95.22920227 12.000000
-144.89799500 723.20697021 -60.23279953 12.000000
-115.35199738 620.21697998 -21.73200035 12.000000
-141.39900208 718.18200684 -104.21499634 12.000000
-146.30900574 724.22802734 -46.74919891 12.000000
-147.80700684 729.25299072 -30.24270058 12.000000
-157.61500549 745.94799805 -67.79759979 12.000000
-146.44400024 727.14501953 -96.23840332 12.000000
-148.88699341 726.70599365 -57.22809982 12.000000
-139.36000061 713.72100830 -80.23680115 12.000000
-106.67400360 598.32098389 -26.75530052 12.000000
-158.21299744 751.40698242 -36.75859833 12.000000
-121.01999664 674.53997803 -78.51540375 12.000000
-159.08099365 751.53997803 -52.05070114 12.000000
-159.20899963 745.92797852 -96.71939850 12.000000
-161.14599609 750.42901611 -69.73919678 12.000000
-159.72099304 750.82598877 -63.72380066 12.000000
-147.58299255 727.56799316 -71.70570374 12.000000
-154.73699951 742.31298828 -21.75410080 12.000000
-166.71699524 754.40698242 -93.36380005 12.000000
-164.13800049 756.90399170 -68.25229645 12.000000
-164.03700256 759.62799072 -62.75970078 12.000000
-164.21800232 755.34899902 -83.27220154 12.000000
-168.30299377 764.26000977 -65.75579834 12.000000
-167.17100525 764.34600830 -59.73529816 12.000000
-167.79100037 765.79101563 -52.71730042 12.000000
-140.91099548 714.68298340 -51.23469925 12.000000
-173.17700195 760.95501709 -90.92559814 12.000000
-160.88000488 750.21002197 -81.23609924 12.000000
-171.70300293 769.37097168 -65.26740265 12.000000
-172.18400574 775.31500244 -42.26380157 12.000000
-173.63600159 767.94799805 -79.32409668 12.000000
-149.56799316 734.21899414 -15.20110035 12.000000
-175.18699646 779.87799072 -37.27730179 12.000000
-176.30000305 780.23400879 -19.74440002 12.000000
-174.51100159 774.61798096 -67.20999908 12.000000
-177.11599731 772.96600342 -77.36450195 12.000000
-174.70799255 779.84399414 -46.18429947 12.000000
-176.74899292 779.80798340 -63.83480072 12.000000
-178.59599304 784.94299316 -35.86539841 12.000000
-183.65100098 783.93103027 -72.83589935 12.000000
-184.73100281 780.37701416 -84.86949921 12.000000
-179.88000488 773.70800781 -87.73110199 12.000000
-186.81300354 788.77502441 -70.25409698 12.000000
-187.86099243 797.22399902 -50.24129868 12.000000
-188.14300537 798.00598145 -19.51140022 12.000000
-192.10400391 801.94299316 -23.66230011 12.000000
-128.54200745 680.29602051 -21.21389961 12.000000
-147.06399536 731.69897461 -36.70600128 12.000000
-197.31900024 806.78900146 -43.23870087 12.000000
-201.57800293 802.34197998 -73.91190338 12.000000
-200.77000427 805.34399414 -67.80449677 12.000000
-196.86399841 806.72698975 -27.73690033 12.000000
-210.23800659 814.90100098 -68.82379913 12.000000
-191.40800476 797.67700195 -64.21050262 12.000000
-166.21099854 765.29199219 -46.24629974 12.000000
-217.91000366 820.61102295 -32.18840027 12.000000
-217.74800110 823.96600342 -26.36440086 12.000000
-224.41499329 823.10998535 -32.19210052 12.000000
-228.82200623 823.81298828 -36.75320053 12.000000
-227.78500366 823.86401367 -50.72760010 12.000000
-195.69000244 792.99102783 -77.98899841 12.000000
-231.23699951 829.39599609 -56.19940186 12.000000
-212.24800110 819.99902344 -29.37229919 12.000000
-225.27000427 820.88299561 -44.75400162 12.000000
-245.34599304 834.82501221 -28.43549919 12.000000
-173.24600220 775.78302002 -60.74480057 12.000000
-208.88800049 817.19299316 -25.22690010 12.000000
-211.37699890 815.70202637 -33.73300171 12.000000
-226.29699707 826.38897705 -60.25370026 12.000000
-223.80700684 822.82202148 -55.70309830 12.000000
-220.21000671 819.46899414 -52.18769836 12.000000
-219.29400635 820.83001709 -59.22019958 12.000000
-205.37500000 814.71398926 -33.73709869 12.000000
-279.88500977 843.67102051 -33.72249985 12.000000
-199.76400757 811.35601807 -31.76320076 12.000000
-274.87899780 844.20599365 -30.23270035 12.000000
-251.74600220 835.44799805 -44.58169937 12.000000
-247.35099792 831.84197998 -41.22850037 12.000000
-282.40899658 847.62799072 -29.16500092 12.000000
-253.80299377 834.41198730 -37.22689819 12.000000
-195.49899292 806.17700195 -20.99780083 12.000000
-246.86000061 831.76702881 -35.24319839 12.000000
-202.27600098 812.39099121 -25.19389915 12.000000
-241.28500366 829.46398926 -35.76610184 12.000000
-237.22599792 828.97802734 -31.30159950 12.000000
-231.80999756 829.25500488 -27.89229965 12.000000
-288.31799316 852.33697510 -27.93009949 12.000000
-215.72700500 817.42999268 -55.69189835 12.000000
-225.30499268 826.84002686 -27.45079994 12.000000
-206.80000305 811.34899902 -49.24789810 12.000000
-214.30099487 815.36700439 -49.73389816 12.000000
-269.35299683 841.76501465 -30.76189995 12.000000
-216.73199463 820.35198975 -64.81729889 12.000000
-239.39199829 833.67199707 -27.56299973 12.000000
-219.88200378 818.19897461 -46.23690033 12.000000
-113.55500031 634.65301514 -43.28120041 12.000000
-128.50500488 670.16802979 -14.74769974 12.000000
-110.93800354 607.16198730 -16.21409988 12.000000
-84.31099701 558.23101807 -62.72489929 12.000000
-85.24980164 553.76300049 -57.20339966 12.000000
-82.25830078 549.25598145 -60.21379852 12.000000
-96.23480225 577.26702881 -41.68840027 12.000000
-55.73189926 570.43902588 -132.69200134 12.000000
-82.18229675 544.89898682 -54.24219894 12.000000
-52.97420120 564.65600586 -133.22900391 12.000000
-50.22280121 559.29199219 -134.22799683 12.000000
-53.22449875 507.75601196 -116.18599701 12.000000
-42.99610138 518.28802490 -141.25100708 12.000000
-48.64450073 502.76901245 -130.09599304 12.000000
-51.70159912 498.25000000 -118.70200348 12.000000
-47.87060165 494.21301270 -131.73599243 12.000000
-49.93119812 489.16900635 -121.27999878 12.000000
-102.48799896 588.62500000 -29.72190094 12.000000
-47.74549866 488.33300781 -128.61999512 12.000000
-46.99250031 480.71899414 -126.25700378 12.000000
-47.21210098 474.74398804 -119.17500305 12.000000
-40.46569824 456.15899658 -59.03129959 12.000000
-43.25650024 474.26901245 -136.71099854 12.000000
-44.37799835 461.71099854 -118.23699951 12.000000
-41.66310120 458.76501465 -127.18000031 12.000000
-54.79349899 539.01501465 -117.82099915 12.000000
-46.21889877 488.24499512 -134.71600342 12.000000
-28.37529945 448.72799683 -53.78229904 12.000000
-204.23199463 807.92498779 -72.78919983 12.000000
-273.31600952 840.85400391 -35.76649857 12.000000
-245.90100098 834.00201416 -50.32640076 12.000000
-102.27300262 619.21502686 -72.27929688 12.000000
-87.36940002 560.20300293 -57.23450089 12.000000
-159.53500366 755.11700439 -31.65670013 12.000000
-110.75700378 632.33001709 -48.67610168 12.000000
-205.25700378 810.89001465 -57.74610138 12.000000
-58.32609940 464.48001099 -95.17489624 12.000000
-68.12100220 507.22799683 -89.16210175 12.000000
-3.33161998 386.70800781 -58.31079865 12.000000
-16.89520073 197.21099854 -139.73100281 12.000000
-17.80290031 206.64500427 -138.26699829 12.000000
-5.47840977 283.55999756 -144.33900452 12.000000
-17.20280075 191.23100281 -140.37800598 12.000000
-17.31360054 167.23500061 -146.27099609 12.000000
-20.66510010 246.32699585 -132.34199524 12.000000
-21.52330017 252.20100403 -130.66299438 12.000000
-18.32909966 161.72599792 -148.76499939 12.000000
2.06696010 319.71701050 -143.78900146 12.000000
-34.88309860 355.20401001 -112.73500061 12.000000
-50.35279846 480.76501465 -53.29050064 12.000000
-24.96599960 400.69799805 -78.11820221 12.000000
-148.74200439 732.80401611 -55.26279831 12.000000
-241.22599792 830.42797852 -47.12950134 12.000000
-263.89199829 839.19500732 -30.72470093 12.000000
-255.34899902 836.77398682 -30.27820015 12.000000
-153.65699768 748.11901855 -42.52690125 12.000000
-263.94000244 838.00201416 -37.23410034 12.000000
-147.38099670 734.21002197 -43.73310089 12.000000
-238.43099976 832.55102539 -53.81850052 12.000000
-257.24798584 837.48101807 -43.11399841 12.000000
-191.21499634 787.49798584 -82.97609711 12.000000
-175.99400330 767.09802246 -90.62609863 12.000000
-74.55690002 534.71899414 -42.61280060 12.000000
-16.25930023 412.26199341 -65.83080292 12.000000
-23.40719986 450.18600464 -50.16189957 12.000000
-14.32079983 428.23199463 -56.47840118 12.000000
-235.32000732 826.30200195 -41.74010086 12.000000
-230.47200012 824.06402588 -45.22949982 12.000000
-150.27000427 742.28302002 -17.39419937 12.000000
-234.91400146 828.66400146 -50.76750183 12.000000
-198.84700012 798.24499512 -77.76650238 12.000000
-178.14999390 786.07897949 -22.26650047 12.000000
-210.81399536 813.81799316 -44.73130035 12.000000
-138.54899597 717.18499756 -40.64830017 12.000000
-163.26499939 750.92401123 -97.24720001 12.000000
-289.32699585 845.75500488 -34.79700089 12.000000
-288.25799561 858.22100830 -30.44589996 12.000000
-285.89801025 840.78100586 -34.09360123 12.000000
-258.45800781 841.09399414 -27.50270081 12.000000
-250.33799744 838.77697754 -27.36240005 12.000000
-45.85029984 402.26199341 -105.24700165 12.000000
-0.92915201 213.75300598 -105.71299744 12.000000
9.59593010 215.09300232 -97.08300018 12.000000
-32.93099976 424.03698730 -72.88670349 12.000000
-29.82430077 429.75500488 -65.37539673 12.000000
-16.41440010 440.60598755 -52.45959854 12.000000
-8.38294983 432.68099976 -52.86009979 12.000000
-44.10129929 396.16799927 -107.12500000 12.000000
-50.86190033 456.14300537 -89.72309875 12.000000
-0.20513999 395.26098633 -144.02600098 12.000000
9.09107971 393.67800903 -149.76899719 12.000000
-1.73828995 382.35501099 -139.58200073 12.000000
8.16571045 382.19799805 -143.18600464 12.000000
3.23562002 378.26599121 -141.05799866 12.000000
14.54619980 324.26300049 -161.79800415 12.000000
11.65649986 324.67599487 -155.69599915 12.000000
6.71899986 371.30599976 -140.02099609 12.000000
5.65517998 357.19198608 -139.10800171 12.000000
7.12489986 388.65798950 -145.28399658 12.000000
4.13243008 366.20901489 -137.72399902 12.000000
7.39553022 326.21301270 -149.47700500 12.000000
14.64350033 301.75500488 -172.17700195 12.000000
5.77829981 277.78399658 -160.49600220 12.000000
7.91718006 311.11300659 -158.60299683 12.000000
5.35807991 319.46499634 -149.55999756 12.000000
5.74841976 314.12399292 -153.19999695 12.000000
7.73566008 285.76901245 -163.08599854 12.000000
2.91956997 313.29901123 -147.88099670 12.000000
-0.01578700 292.79901123 -152.93200684 12.000000
10.96940041 317.37500000 -161.28599548 12.000000
20.63279915 279.72900391 -166.20700073 12.000000
1.12995005 372.77801514 -138.16600037 12.000000
14.69029999 287.27301025 -167.49200439 12.000000
10.45199966 291.40301514 -165.72000122 12.000000
2.14780998 297.73001099 -156.21800232 12.000000
-0.41993800 298.65600586 -150.76100159 12.000000
9.35986996 318.67800903 -155.03300476 12.000000
4.85347986 294.18899536 -161.04200745 12.000000
-1.29348004 360.24200439 -134.58700562 12.000000
-1.80853999 312.19799805 -142.16499329 12.000000
-5.89271021 277.65798950 -143.28900146 12.000000
-10.86240005 260.32901001 -133.00700378 12.000000
-16.42449951 257.73901367 -131.33099365 12.000000
-11.87819958 239.26499939 -135.36900330 12.000000
-10.86590004 232.22999573 -137.10600281 12.000000
-15.88280010 228.21499634 -136.75100708 12.000000
-9.89760971 226.26600647 -137.61700439 12.000000
-10.35140038 219.72200012 -139.57499695 12.000000
-15.29570007 216.17900085 -138.58900452 12.000000
-8.86104012 213.69900513 -140.63699341 12.000000
-9.89033985 207.74299622 -141.80900574 12.000000
-5.19316006 224.65199280 -141.56700134 12.000000
-7.39269018 200.71600342 -143.34500122 12.000000
-0.99183899 205.71800232 -146.88600159 12.000000
24.47769928 270.34899902 -101.00499725 13.000000
14.07629967 262.76699829 -100.39299774 13.000000
30.04019928 271.83300781 -103.35800171 13.000000
18.10910034 267.23001099 -99.77300262 13.000000
29.85110092 236.63099670 -126.03399658 13.000000
18.63120079 246.70500183 -106.22100067 13.000000
23.12100029 250.71899414 -106.74800110 13.000000
29.16419983 252.68800354 -113.20200348 13.000000
22.98740005 256.77700806 -105.53099823 13.000000
28.36350060 258.61099243 -107.47499847 13.000000
17.09160042 252.76400757 -104.35099792 13.000000
30.62680054 277.70999146 -101.73300171 13.000000
23.51810074 244.33399963 -109.50199890 13.000000
32.43009949 250.65100098 -122.99800110 13.000000
36.26129913 289.13800049 -100.56800079 13.000000
17.66559982 277.07101440 -95.07910156 13.000000
8.64365005 270.25799561 -97.34429932 13.000000
23.15299988 279.68798828 -95.67949677 13.000000
27.59099960 283.72900391 -96.78710175 13.000000
34.51929855 260.25000000 -121.83399963 13.000000
27.20409966 290.62500000 -92.61660004 13.000000
9.15643024 279.73300171 -94.36109924 13.000000
26.15019989 263.67001343 -105.11599731 13.000000
31.11310005 295.22000122 -93.25009918 13.000000
37.30530167 272.66101074 -119.09700012 13.000000
14.12520027 283.76400757 -91.87779999 13.000000
19.61079979 287.26000977 -91.34629822 13.000000
33.52099991 309.30700684 -87.95490265 13.000000
30.78359985 243.66099548 -124.12100220 13.000000
14.66699982 295.82299805 -88.01550293 13.000000
0.77224898 289.75500488 -97.91519928 13.000000
39.31159973 311.09799194 -90.97319794 13.000000
1.49688995 283.26199341 -98.55909729 13.000000
20.08979988 298.26599121 -86.89379883 13.000000
5.28647995 289.74700928 -93.95559692 13.000000
43.26890182 315.60400391 -91.58889771 13.000000
24.62700081 302.20700073 -86.72339630 13.000000
9.22589016 293.28601074 -90.45670319 13.000000
33.78279877 283.08999634 -101.56300354 13.000000
14.59510040 271.25601196 -96.84519958 13.000000
27.58639908 310.76199341 -84.83950043 13.000000
12.18249989 301.74499512 -87.37439728 13.000000
5.01456022 297.66699219 -92.53939819 13.000000
33.53210068 315.79199219 -85.43589783 13.000000
17.16069984 304.78201294 -84.99420166 13.000000
38.66059875 318.66699219 -86.66970062 13.000000
-2.26100993 298.81201172 -98.87940216 13.000000
44.26779938 322.56399536 -89.02590179 13.000000
14.12279987 289.70999146 -90.23079681 13.000000
18.14329910 310.75399780 -83.37979889 13.000000
31.33499908 288.56399536 -96.92070007 13.000000
24.74010086 236.15899658 -115.18199921 13.000000
41.22750092 288.18899536 -117.14900208 13.000000
6.19540977 304.25399780 -89.90010071 13.000000
40.04109955 324.39599609 -84.93840027 13.000000
35.52349854 294.26901245 -97.36799622 13.000000
44.58919907 328.34298706 -85.33920288 13.000000
-1.97760999 305.13101196 -95.47059631 13.000000
28.59869957 317.76901245 -82.37660217 13.000000
49.45849991 334.39898682 -86.42539978 13.000000
-0.29758900 309.79901123 -90.93319702 13.000000
32.14130020 322.68099976 -81.67579651 13.000000
38.03039932 300.31298828 -95.87979889 13.000000
12.15359974 310.25100708 -85.33129883 13.000000
25.12849998 295.19601440 -89.21309662 13.000000
22.11310005 315.24200439 -81.81079865 13.000000
36.16429901 328.17898560 -81.14749908 13.000000
41.08980179 331.72500610 -81.79650116 13.000000
27.20299911 245.18600464 -114.19599915 13.000000
16.59799957 320.66400146 -80.55470276 13.000000
35.65470123 333.62298584 -78.14459991 13.000000
4.71990013 312.77801514 -88.45480347 13.000000
33.08359909 303.23199463 -90.79370117 13.000000
41.10839844 337.73098755 -79.80010223 13.000000
9.21685028 317.31201172 -84.00789642 13.000000
21.12210083 324.76800537 -78.99600220 13.000000
46.66669846 339.67300415 -81.15039825 13.000000
27.07589912 327.28601074 -78.92659760 13.000000
50.76919937 344.06201172 -81.50199890 13.000000
1.19424999 317.85900879 -86.38320160 13.000000
22.61440086 331.74099731 -76.80269623 13.000000
41.12260056 345.21200562 -77.23860168 13.000000
7.27453995 323.30300903 -83.49900055 13.000000
47.06169891 347.77499390 -78.38169861 13.000000
29.11569977 336.73498535 -76.31159973 13.000000
12.19600010 325.27801514 -80.46720123 13.000000
51.56449890 351.77499390 -79.36450195 13.000000
19.63809967 261.69699097 -102.69699860 13.000000
34.65650177 339.64999390 -76.07910156 13.000000
57.00569916 353.79098511 -81.39109802 13.000000
15.66800022 329.76800537 -77.92649841 13.000000
43.64950180 352.19299316 -76.17819977 13.000000
28.56640053 342.82800293 -73.96219635 13.000000
51.10689926 357.75799561 -77.94589996 13.000000
34.62250137 346.21301270 -74.74150085 13.000000
8.68330002 333.38101196 -79.57319641 13.000000
53.61679840 363.21600342 -77.25730133 13.000000
13.71510029 335.80999756 -77.06590271 13.000000
41.84000015 294.14199829 -115.10600281 13.000000
59.00540161 364.85699463 -79.53089905 13.000000
19.12299919 339.20999146 -74.73059845 13.000000
38.08169937 352.75000000 -73.86820221 13.000000
52.20190048 368.59100342 -74.56980133 13.000000
32.09360123 355.21499634 -70.29910278 13.000000
-3.46282005 291.14099121 -104.56999969 13.000000
12.16370010 342.80899048 -73.42060089 13.000000
58.12860107 370.16500854 -75.61090088 13.000000
61.62939835 374.69900513 -73.72209930 13.000000
18.98550034 345.03500366 -72.30139923 13.000000
42.60869980 360.21499634 -73.77529907 13.000000
46.58269882 365.26699829 -74.38130188 13.000000
25.11949921 349.72399902 -71.28970337 13.000000
35.63339996 360.43200684 -70.83000183 13.000000
52.64020157 373.67700195 -71.17160034 13.000000
14.09259987 349.92401123 -69.97859955 13.000000
58.15930176 377.64300537 -69.67240143 13.000000
63.57680130 380.22198486 -70.81980133 13.000000
39.16619873 365.68399048 -70.65519714 13.000000
23.61969948 355.23699951 -69.31520081 13.000000
46.59849930 370.81100464 -71.83889771 13.000000
59.66080093 382.15301514 -65.67549896 13.000000
40.71699905 371.58401489 -69.01950073 13.000000
64.75610352 386.13800049 -66.64029694 13.000000
47.62829971 375.19601440 -67.72090149 13.000000
16.12999916 355.79299927 -67.34889984 13.000000
29.61100006 362.20901489 -68.77290344 13.000000
52.60879898 378.79501343 -65.82230377 13.000000
23.13260078 361.17401123 -67.64050293 13.000000
32.69070053 367.37100220 -68.23459625 13.000000
46.58800125 380.90499878 -61.46989822 13.000000
52.07899857 383.79998779 -60.30319977 13.000000
29.63039970 371.19400024 -64.71589661 13.000000
57.59909821 387.74099731 -60.30849838 13.000000
35.08169937 374.34399414 -64.85720062 13.000000
63.19279861 390.14498901 -60.66230011 13.000000
66.93569946 392.06799316 -65.06220245 13.000000
41.10139847 376.31298828 -64.32039642 13.000000
23.03359985 368.86401367 -63.38830185 13.000000
38.19940186 385.03698730 -53.59379959 13.000000
43.75320053 387.90701294 -52.48310089 13.000000
48.65760040 391.12899780 -51.16189957 13.000000
54.24739838 394.47198486 -50.49940109 13.000000
29.62030029 379.21899414 -55.23989868 13.000000
59.80879974 397.04400635 -51.01739883 13.000000
49.68780136 396.60198975 -45.15579987 13.000000
54.77980042 400.00500488 -44.57040024 13.000000
60.20629883 401.61898804 -47.14270020 13.000000
38.14989853 388.60998535 -47.15660095 13.000000
42.61230087 392.74398804 -45.24359894 13.000000
64.41539764 398.45599365 -55.02479935 13.000000
58.08430099 420.24798584 -31.79879951 13.000000
62.79769897 423.07400513 -34.52470016 13.000000
67.18759918 426.66699219 -36.66949844 13.000000
71.37210083 430.08801270 -39.56629944 13.000000
29.59709930 375.61599731 -60.25009918 13.000000
69.01170349 434.39599609 -33.39870071 13.000000
73.35549927 437.61199951 -37.06520081 13.000000
55.83969879 406.50601196 -39.45709991 13.000000
36.06959915 381.32699585 -57.84700012 13.000000
60.53269958 410.29598999 -40.84970093 13.000000
48.13930130 401.33200073 -38.44079971 13.000000
67.23459625 416.65701294 -43.13410187 13.000000
42.61270142 383.35000610 -57.30799866 13.000000
82.11150360 475.20700073 -57.23699951 13.000000
58.11259842 414.74398804 -36.25389862 13.000000
63.31760025 417.57501221 -38.02640152 13.000000
53.79150009 410.04299927 -35.06209946 13.000000
54.18099976 389.50799561 -55.53900146 13.000000
62.86169815 427.43600464 -30.39800072 13.000000
75.12429810 452.21099854 -76.23680115 13.000000
82.88600159 487.77398682 -58.71329880 13.000000
79.54820251 464.65899658 -60.39870071 13.000000
48.11100006 386.17700195 -56.23149872 13.000000
59.69680023 392.63400269 -55.66780090 13.000000
77.28469849 462.51300049 -76.36540222 13.000000
78.54509735 458.69699097 -71.23079681 13.000000
79.20890045 470.19699097 -73.23739624 13.000000
63.93310165 408.32998657 -45.40330124 13.000000
82.04409790 471.22100830 -52.23899841 13.000000
68.39779663 436.28500366 -102.20800018 13.000000
70.60109711 441.25698853 -96.70120239 13.000000
97.47419739 587.82202148 -19.93709946 13.000000
74.13890076 488.20098877 -22.20549965 13.000000
98.06749725 596.21997070 -17.78590012 13.000000
83.68609619 481.70999146 -57.25189972 13.000000
76.17019653 479.70999146 -25.71949959 13.000000
106.78600311 647.10400391 -16.48859978 13.000000
127.71700287 713.73101807 -58.30270004 13.000000
108.59600067 660.74499512 -16.67379951 13.000000
113.32599640 666.67102051 -18.52700043 13.000000
101.65200043 624.17602539 -15.64299965 13.000000
106.25700378 626.18298340 -19.04199982 13.000000
113.18399811 632.69396973 -25.12019920 13.000000
103.11499786 632.70501709 -15.32359982 13.000000
108.66200256 632.21301270 -19.65500069 13.000000
102.71600342 612.68798828 -18.12849998 13.000000
106.18900299 617.69396973 -19.61359978 13.000000
94.20980072 590.20300293 -15.10280037 13.000000
112.70700073 651.71002197 -20.05529976 13.000000
107.21800232 653.27398682 -16.43689919 13.000000
104.34200287 597.14697266 -27.10580063 13.000000
134.10699463 763.23699951 -38.71720123 13.000000
104.12699890 639.39398193 -15.69839954 13.000000
120.14099884 669.21002197 -24.21590042 13.000000
110.21099854 638.15997314 -20.01059914 13.000000
112.12000275 675.21197510 -17.75720024 13.000000
121.10199738 678.21801758 -23.78339958 13.000000
115.09700012 645.72100830 -23.25200081 13.000000
114.13099670 682.72302246 -18.27289963 13.000000
118.31300354 686.68298340 -20.01059914 13.000000
122.74199677 684.22302246 -24.06159973 13.000000
126.15100098 702.72100830 -64.24710083 13.000000
109.52100372 614.30902100 -26.46179962 13.000000
98.57060242 608.20202637 -15.31809998 13.000000
80.39330292 471.20098877 -65.25240326 13.000000
81.15609741 464.71099854 -54.23600006 13.000000
104.66999817 557.68902588 -61.20449829 13.000000
80.38999939 459.84201050 -50.17380142 13.000000
91.72480011 564.17999268 -21.66239929 13.000000
114.69499969 638.70202637 -25.03960037 13.000000
116.13500214 660.70898438 -21.21769905 13.000000
127.50000000 694.26397705 -25.87809944 13.000000
78.74459839 456.22799683 -63.74739838 13.000000
73.80110168 445.77999878 -80.27469635 13.000000
81.30549622 478.12298584 -65.25839996 13.000000
44.65470123 396.53601074 -41.06050110 13.000000
79.37650299 464.67098999 -69.77629852 13.000000
64.81369781 403.46499634 -50.52510071 13.000000
75.76519775 495.68600464 -22.63089943 13.000000
101.48699951 604.27197266 -18.90740013 13.000000
68.27909851 422.10400391 -40.56620026 13.000000
39.83480072 281.12600708 -118.55999756 13.000000
35.97930145 266.26599121 -120.35600281 13.000000
31.26090050 263.65701294 -109.66999817 13.000000
40.30390167 305.78698730 -94.08650208 13.000000
79.25340271 453.19100952 -54.22919846 13.000000
77.14730072 457.29000854 -87.23719788 13.000000
69.12380219 430.22698975 -82.23169708 13.000000
78.20400238 447.70098877 -38.71379852 13.000000
72.40480042 444.36898804 -27.29010010 13.000000
75.95700073 436.74099731 -56.74629974 13.000000
78.27249908 444.15499878 -46.74769974 13.000000
23.24880028 276.70498657 -100.97000122 13.000000
29.41979980 228.30000305 -128.95500183 13.000000
2.62924004 272.11700439 -98.69400024 13.000000
34.09099960 265.22100830 -114.75000000 13.000000
43.73300171 300.17300415 -114.68000031 13.000000
21.12070084 231.21299744 -112.23899841 13.000000
24.27420044 230.14399719 -117.63899994 13.000000
-1.46203995 276.72698975 -104.18199921 13.000000
7.15610981 254.38299561 -103.00199890 13.000000
12.61779976 256.73800659 -101.78800201 13.000000
42.64559937 302.72198486 -109.22899628 13.000000
41.03400040 275.73300171 -122.80699921 13.000000
45.30569839 306.17898560 -114.07499695 13.000000
40.65909958 296.19100952 -105.73200226 13.000000
18.12210083 223.71299744 -113.23899841 13.000000
39.80690002 269.55599976 -124.09200287 13.000000
19.56080055 216.24200439 -117.77700043 13.000000
22.13719940 215.69700623 -123.22899628 13.000000
27.10479927 231.21899414 -123.74600220 13.000000
12.12129974 247.22999573 -104.78900146 13.000000
31.69939995 259.18099976 -113.70200348 13.000000
21.68160057 222.19299316 -118.19999695 13.000000
24.75270081 221.68299866 -123.65000153 13.000000
39.12350082 290.21099854 -106.73600006 13.000000
6.62369013 260.20498657 -100.70500183 13.000000
0.83374602 263.27899170 -104.92299652 13.000000
33.81689835 240.59100342 -129.08200073 13.000000
5.27762985 247.23800659 -105.03700256 13.000000
34.75559998 247.22399902 -128.07899475 13.000000
5.09991980 266.19601440 -100.19999695 13.000000
9.12576962 241.69700623 -106.43699646 13.000000
39.22290039 284.67199707 -112.71299744 13.000000
12.18099976 235.65600586 -107.94200134 13.000000
27.72629929 240.19799805 -118.68900299 13.000000
16.06749916 240.27699280 -107.95099640 13.000000
35.13850021 278.70700073 -105.73200226 13.000000
21.10350037 237.23199463 -110.26799774 13.000000
34.11270142 273.21600342 -108.73899841 13.000000
36.82910156 276.66598511 -113.18399811 13.000000
15.13409996 230.69400024 -110.17800140 13.000000
35.71609879 255.18899536 -125.14700317 13.000000
2.21469998 257.29501343 -105.32700348 13.000000
43.10680008 306.71099854 -103.74099731 13.000000
44.30300140 311.18798828 -107.68199921 13.000000
46.73490143 313.65798950 -113.17600250 13.000000
46.31999969 317.61801147 -108.64600372 13.000000
48.52000046 322.24200439 -111.80000305 13.000000
43.80849838 310.61199951 -95.64309692 13.000000
46.69680023 322.66799927 -105.20999908 13.000000
50.72930145 330.16699219 -111.15499878 13.000000
52.11449814 336.21499634 -110.24400330 13.000000
47.25400162 328.49398804 -103.72399902 13.000000
48.60089874 326.72799683 -90.24980164 13.000000
49.17430115 334.19900513 -102.69400024 13.000000
50.67649841 339.70300293 -104.71099854 13.000000
52.41799927 345.29098511 -106.34799957 13.000000
52.83089828 350.22198486 -102.16600037 13.000000
55.81299973 353.09201050 -106.56600189 13.000000
52.39319992 340.24600220 -85.97550201 13.000000
45.32630157 295.12899780 -120.01499939 13.000000
56.12570190 361.70800781 -103.73500061 13.000000
47.41180038 320.14099121 -94.65859985 13.000000
58.06829834 367.73999023 -102.78600311 13.000000
61.63940048 372.63000488 -101.81400299 13.000000
55.00759888 345.74200439 -86.23940277 13.000000
63.30049896 369.58898926 -78.61229706 13.000000
59.29090118 379.04598999 -99.08260345 13.000000
61.20780182 390.70700073 -95.71080017 13.000000
68.27490234 399.15100098 -60.17900085 13.000000
70.64869690 402.70098877 -64.72540283 13.000000
