23.76029968 135.47799683 4.97925997 9.000000
1.04761004 88.41259766 -9.83572006 9.000000
45.10449982 170.44599915 -3.97530007 9.000000
32.45940018 199.09800720 -69.00509644 9.000000
37.19960022 203.33399963 -73.96469879 9.000000
42.26900101 208.26600647 -74.90920258 9.000000
61.49100113 184.19500732 -29.92919922 9.000000
47.21810150 212.30700684 -77.94290161 9.000000
37.21590042 203.32499695 -64.97669983 9.000000
52.44689941 217.04400635 -76.76689911 9.000000
56.24069977 194.38800049 -13.94589996 9.000000
45.23569870 211.28999329 -68.96250153 9.000000
49.97399902 216.57600403 -64.99250031 9.000000
63.93009949 231.59800720 -43.98089981 9.000000
64.18139648 232.36999512 -50.95999908 9.000000
76.38379669 229.37800598 -19.76049995 9.000000
63.30820084 228.16499329 -64.86350250 9.000000
62.27799988 225.13400269 -75.91629791 9.000000
68.09639740 237.44900513 -42.96229935 9.000000
68.22820282 233.26600647 -61.92739868 9.000000
80.70279694 235.64100647 -22.22570038 9.000000
68.75630188 230.93299866 -69.08699799 9.000000
69.80020142 236.74200439 -55.12500000 9.000000
50.19639969 216.34899902 -57.98619843 9.000000
73.72319794 235.85899353 -67.12629700 9.000000
71.73120117 244.60000610 -41.26210022 9.000000
75.41580200 235.13299561 -74.85150146 9.000000
72.75440216 241.72500610 -48.07889938 9.000000
75.20149994 240.36799622 -58.94120026 9.000000
69.59089661 221.71299744 -15.20890045 9.000000
83.03859711 242.47799683 -21.00049973 9.000000
72.96859741 219.50700378 -21.05760002 9.000000
75.88120270 251.57899475 -41.08420181 9.000000
59.09180069 226.44999695 -50.97409821 9.000000
77.60350037 251.28900146 -47.87170029 9.000000
59.88370132 226.66499329 -58.00970078 9.000000
77.95459747 247.49600220 -56.00410080 9.000000
85.28220367 252.35899353 -17.81450081 9.000000
79.39479828 245.37899780 -64.87079620 9.000000
57.78720093 222.86099243 -68.04550171 9.000000
81.22370148 261.46301270 -66.94200134 9.000000
80.75340271 265.52099609 -52.95429993 9.000000
80.36139679 265.43200684 -59.98450089 9.000000
78.55979919 240.75300598 -70.11440277 9.000000
84.33730316 271.38000488 -41.94829941 9.000000
82.53639984 271.43099976 -71.87000275 9.000000
86.54540253 278.26699829 -39.89410019 9.000000
84.99459839 275.45401001 -78.02980042 9.000000
83.44039917 281.38000488 -62.89599991 9.000000
81.46949768 250.41799927 -70.87760162 9.000000
78.50579834 254.56199646 -54.06389999 9.000000
79.69380188 252.40199280 -62.82199860 9.000000
77.68170166 258.03201294 -38.67610168 9.000000
68.93099976 229.68899536 -76.02429962 9.000000
87.88590240 308.48098755 -61.95180130 9.000000
63.45360184 191.14500427 7.99362993 9.000000
56.28269958 221.30000305 -44.99029922 9.000000
88.74310303 285.16000366 -38.80070114 9.000000
53.82559967 180.67599487 4.06517982 9.000000
48.76829910 174.72200012 2.06438994 9.000000
79.66459656 258.63000488 -46.95100021 9.000000
36.54100037 200.02499390 -58.18009949 9.000000
10.11110020 40.45349884 -33.92660141 9.000000
54.48780060 221.05200195 -61.96810150 9.000000
88.99099731 252.51400757 -24.00830078 9.000000
81.98619843 244.49000549 -79.02749634 9.000000
83.38339996 252.43200684 -78.86499786 9.000000
72.36070251 201.18800354 9.95547009 9.000000
102.75199890 321.60400391 -35.09619904 9.000000
59.90159988 226.62699890 -41.03419876 9.000000
85.90260315 297.46398926 -78.01280212 9.000000
164.25700378 450.28601074 -56.83829880 9.000000
169.43600464 455.12600708 -57.70759964 9.000000
158.17100525 445.38800049 -49.95970154 9.000000
-16.73690033 119.60399628 -23.26569939 10.000000
-10.97589970 121.43499756 -18.79120064 10.000000
-25.16570091 161.41000366 -15.75730038 10.000000
-12.26560020 153.28100586 -11.65410042 10.000000
-8.95730019 152.44400024 -4.95911980 10.000000
-5.27258015 149.26699829 0.27214500 10.000000
-19.80069923 157.52200317 -13.23060036 10.000000
0.13971201 146.53999329 3.97843003 10.000000
-16.00200081 163.41400146 -10.72719955 10.000000
-0.14043701 152.17999268 8.29537964 10.000000
7.03790998 144.60800171 4.79087019 10.000000
-26.48620033 168.65199280 -14.46259975 10.000000
12.15600014 149.33799744 6.22363997 10.000000
-9.88809013 158.47300720 -0.98604298 10.000000
-5.97888994 155.42300415 4.06241989 10.000000
-2.79995990 141.55700684 -2.09161997 10.000000
-22.09880066 140.38200378 -20.78800011 10.000000
-7.21780014 140.36000061 -9.84761047 10.000000
7.06441021 152.49400330 9.98054981 10.000000
-15.87440014 139.51100159 -16.14570045 10.000000
0.08661300 158.47599792 13.01539993 10.000000
15.16069984 155.38499451 8.17543030 10.000000
-9.36448956 162.28300476 5.24066019 10.000000
-23.15959930 150.36999512 -17.74900055 10.000000
-17.04089928 147.37500000 -14.63619995 10.000000
7.99487019 159.63200378 13.72789955 10.000000
-30.03199959 184.42700195 -12.88440037 10.000000
-24.83209991 181.51199341 -9.14482021 10.000000
2.98777008 139.32499695 1.21091998 10.000000
-31.17099953 191.37800598 -11.64830017 10.000000
-10.75780010 176.59100342 20.89349937 10.000000
-25.67880058 189.55200195 -7.47588015 10.000000
-4.01999998 175.11399841 23.55290031 10.000000
-13.98009968 182.37500000 24.07500076 10.000000
-30.08340073 197.39799500 -7.79629993 10.000000
3.14947009 175.22300720 23.44589996 10.000000
-8.01931953 184.18400574 27.41419983 10.000000
10.08829975 175.14999390 22.36219978 10.000000
-23.22220039 196.35299683 -4.60052013 10.000000
-0.90230298 180.52600098 26.86820030 10.000000
-25.89679909 203.47300720 -4.02402020 10.000000
-3.78983998 187.86900330 31.64959908 10.000000
-17.42499924 192.70100403 30.77779961 10.000000
-34.01179886 207.43400574 -8.92177010 10.000000
-10.87870026 190.63400269 32.89400101 10.000000
4.01659012 184.14100647 30.32430077 10.000000
-19.50699997 132.68099976 -20.40169907 10.000000
-30.77549934 211.50399780 -4.21923018 10.000000
-10.22399998 146.31100464 -12.66520023 10.000000
-8.68712044 169.64599609 15.86270046 10.000000
-19.22820091 184.30499268 -5.66098022 10.000000
-16.57990074 173.63400269 -7.32466984 10.000000
-2.45309997 131.74699402 -7.35903978 10.000000
-24.08790016 174.40600586 -10.69460011 10.000000
-16.05480003 126.30000305 -19.88100052 10.000000
-9.90116024 128.47700500 -17.07080078 10.000000
-33.71620178 235.55400085 0.69039601 10.000000
-23.58569908 225.52099609 15.81400013 10.000000
-9.93972015 135.44200134 -15.81849957 10.000000
-40.43889999 237.83200073 -3.52629995 10.000000
-28.86129951 232.48199463 4.98629999 10.000000
-20.54389954 228.46400452 21.73450089 10.000000
-13.24289989 217.63999939 44.94240189 10.000000
-2.03264999 168.10499573 19.52499962 10.000000
-24.74559975 232.47999573 15.91219997 10.000000
-40.69530106 244.55799866 -1.27762997 10.000000
-34.10340118 242.36900330 2.32172990 10.000000
-30.01049995 241.41900635 8.08063030 10.000000
-15.98069954 230.44400024 27.08889961 10.000000
-24.94120026 239.45899963 17.03980064 10.000000
5.11499977 168.30499268 19.29330063 10.000000
12.04010010 169.54299927 17.89500046 10.000000
-42.97079849 252.44099426 -0.91695303 10.000000
-20.50589943 238.51899719 22.64189911 10.000000
-36.92079926 250.46400452 3.02131009 10.000000
-31.13859940 248.41200256 9.16901970 10.000000
-37.51860046 224.66999817 -5.40122986 10.000000
-41.72200012 258.55200195 2.76064992 10.000000
-15.79580021 239.43899536 27.91099930 10.000000
-32.01259995 226.40499878 -0.79414499 10.000000
-27.07460022 247.42900085 16.13279915 10.000000
-22.24740028 246.44099426 21.33480072 10.000000
-26.96010017 221.44999695 2.05388999 10.000000
-35.81110001 259.52801514 6.92082977 10.000000
-31.41600037 256.36801147 11.42599964 10.000000
-20.59939957 220.49899292 20.80310059 10.000000
-17.01729965 246.47500610 26.17849922 10.000000
-6.78043985 163.55400085 11.93400002 10.000000
-11.97879982 246.46299744 32.07300186 10.000000
-27.05249977 255.43699646 17.14839935 10.000000
-46.23899841 267.32000732 1.26833999 10.000000
-21.93689919 253.46099854 22.04159927 10.000000
-39.81290054 265.51901245 5.86436987 10.000000
-24.79380035 211.51400757 -0.08411200 10.000000
-11.98200035 195.33099365 38.18759918 10.000000
-31.76059914 263.49200439 12.86709976 10.000000
-35.60139847 215.61199951 -7.29337978 10.000000
-4.99488020 192.24899292 38.08489990 10.000000
-12.71560001 199.83900452 43.77709961 10.000000
-11.07540035 238.46200562 33.12469864 10.000000
-15.70820045 265.51098633 29.82939911 10.000000
-43.79309845 278.53201294 7.81872988 10.000000
-49.61619949 281.61499023 3.78502011 10.000000
-29.33989906 271.17300415 17.46150017 10.000000
-11.15310001 261.39498901 34.30730057 10.000000
-8.97848988 251.45700073 37.06370163 10.000000
-38.02410126 275.39700317 11.14430046 10.000000
-24.22039986 270.30801392 22.32670021 10.000000
-50.20460129 289.32000732 7.32426023 10.000000
-26.73749924 277.64700317 24.80890083 10.000000
-16.90489960 253.47300720 26.99909973 10.000000
-44.01309967 285.41101074 10.14319992 10.000000
-20.91640091 274.46398926 28.02090073 10.000000
-7.78430986 257.90701294 40.07369995 10.000000
-39.05960083 282.37899780 14.14290047 10.000000
-11.90310001 269.47601318 34.99890137 10.000000
-34.36349869 279.80099487 18.68580055 10.000000
-7.45717001 265.51000977 39.65290070 10.000000
-31.73390007 282.65399170 24.81229973 10.000000
-5.03347015 271.45498657 43.13430023 10.000000
-18.00569916 278.36999512 33.11230087 10.000000
-45.18840027 292.33401489 12.31009960 10.000000
-39.73949814 288.57101440 17.91390038 10.000000
-52.01399994 299.39898682 10.14190006 10.000000
-22.86319923 283.53399658 32.95869827 10.000000
-11.21780014 278.23199463 39.49539948 10.000000
-10.40270042 225.74499512 46.77730179 10.000000
-37.54489899 291.62100220 24.75219917 10.000000
-32.28039932 289.18301392 29.39959908 10.000000
-43.38330078 300.74899292 20.68000031 10.000000
-20.76359940 262.50299072 23.85120010 10.000000
-27.89780045 291.48901367 34.99779892 10.000000
-13.88630009 285.50399780 41.96680069 10.000000
-56.83909988 307.49499512 8.97677994 10.000000
-39.78010178 300.50299072 26.92700005 10.000000
-22.25040054 291.13198853 39.42340088 10.000000
-7.93340015 282.45098877 44.04589844 10.000000
-51.13079834 306.36700439 13.29430008 10.000000
-34.99620056 296.42098999 31.09600067 10.000000
-2.63385010 278.53100586 46.74739838 10.000000
-53.97079849 313.43200684 14.09410000 10.000000
-21.55050087 296.78698730 44.61529922 10.000000
-8.98764992 289.34399414 48.14630127 10.000000
-36.25389862 303.23800659 33.28879929 10.000000
-60.19739914 318.29501343 11.25819969 10.000000
-49.70029831 313.57598877 19.85700035 10.000000
-31.23550034 300.26699829 37.32239914 10.000000
-26.92919922 262.46099854 18.03370094 10.000000
-16.20739937 292.16598511 45.41939926 10.000000
-43.44400024 307.66400146 25.63209915 10.000000
-15.28709984 210.58299255 41.95220184 10.000000
-17.03689957 297.32998657 50.14519882 10.000000
-27.93519974 303.40200806 43.04940033 10.000000
-10.83320045 294.56799316 52.95069885 10.000000
-49.66870117 320.65798950 24.80229950 10.000000
-17.02289963 302.33099365 56.13100052 10.000000
-45.25000000 319.28399658 30.28400040 10.000000
-41.05649948 314.40100098 33.12099838 10.000000
-34.00260162 310.42800903 40.08959961 10.000000
-64.40850067 328.85800171 12.47719955 10.000000
-29.82769966 309.56500244 45.96509933 10.000000
-24.81310081 305.56399536 48.93170166 10.000000
-58.70289993 327.60699463 16.69070053 10.000000
-48.64960098 325.72299194 31.71470070 10.000000
-43.73460007 323.67999268 36.84379959 10.000000
-47.32699966 274.23800659 3.30928993 10.000000
-37.55310059 318.66900635 40.75519943 10.000000
-66.70860291 335.89199829 13.77050018 10.000000
-32.18719864 316.32199097 48.20970154 10.000000
-60.92490005 334.45999146 18.02899933 10.000000
-27.03199959 312.38800049 52.11510086 10.000000
-22.35519981 309.82501221 56.70840073 10.000000
-55.66859818 329.62500000 23.88500023 10.000000
-29.79360008 329.51699829 59.92959976 10.000000
-44.52759933 338.64001465 50.79389954 10.000000
-70.09919739 355.32199097 20.28610039 10.000000
-58.51119995 347.83300781 42.70759964 10.000000
-38.95610046 336.42401123 55.05450058 10.000000
-55.00550079 320.44699097 16.15489960 10.000000
-53.86830139 344.51199341 46.99250031 10.000000
-75.15329742 360.29800415 17.21039963 10.000000
-48.38679886 343.92199707 53.53530121 10.000000
-58.03300095 351.38101196 49.09270096 10.000000
-40.90250015 342.49798584 58.00949860 10.000000
-35.18870163 339.12600708 60.32460022 10.000000
-26.92230034 334.46200562 65.02519989 10.000000
-54.03070068 351.38699341 56.11449814 10.000000
-46.38619995 346.88800049 60.44179916 10.000000
-56.68870163 360.61599731 65.91400146 10.000000
-69.66069794 346.57598877 16.62140083 10.000000
-30.91900063 323.46600342 55.02360153 10.000000
-52.73049927 358.62100220 71.92590332 10.000000
-48.06359863 355.27999878 76.09030151 10.000000
-56.85660172 338.52899170 33.97880173 10.000000
-51.79570007 335.57699585 37.94039917 10.000000
-47.24729919 335.09399414 43.30879974 10.000000
-42.20520020 330.20700073 44.26319885 10.000000
-36.58020020 326.68099976 48.68769836 10.000000
-31.27619934 340.01699829 66.41000366 10.000000
-57.99689865 357.40100098 58.06060028 10.000000
-52.68560028 353.69699097 62.91730118 10.000000
-26.70219994 317.64001465 56.86830139 10.000000
-45.04180145 349.30099487 67.10320282 10.000000
-64.64859772 341.66101074 18.60470009 10.000000
-71.30100250 406.41598511 0.80175000 10.000000
-69.78359985 412.46798706 -2.89673996 10.000000
-34.69670105 330.62500000 54.84939957 10.000000
-64.28209686 410.58599854 -22.11989975 10.000000
-39.20909882 343.98199463 65.17610168 10.000000
-62.26850128 348.24200439 35.15169907 10.000000
-73.04460144 417.43798828 0.92810899 10.000000
-66.13790131 416.47299194 -17.07589912 10.000000
-69.11689758 419.45300293 -5.05638981 10.000000
-47.18130112 330.23400879 38.16870117 10.000000
-64.72039795 423.46701050 -17.84110069 10.000000
-104.64399719 433.61700439 30.75340080 10.000000
-73.77999878 424.48599243 0.16743200 10.000000
-69.78250122 426.48599243 -5.88612986 10.000000
-64.55490112 400.55999756 -19.89109993 10.000000
-66.42479706 431.39599609 -12.68949986 10.000000
-69.69339752 399.44601440 -0.84643799 10.000000
-110.04100037 444.30899048 32.13219833 10.000000
-104.73100281 441.57800293 35.79819870 10.000000
-67.83409882 404.54299927 -5.91501999 10.000000
-106.95999908 448.43899536 38.06710052 10.000000
-77.18039703 440.25100708 -4.36140013 10.000000
-115.01699829 457.40100098 35.11980057 10.000000
-77.06109619 448.31201172 -9.18330956 10.000000
-66.16649628 390.40301514 -7.07331991 10.000000
-64.65840149 392.56600952 -13.91650009 10.000000
-117.78399658 466.55700684 37.89440155 10.000000
-62.52920151 399.47601318 -27.85460091 10.000000
-119.99600220 473.40499878 40.08570099 10.000000
-104.57499695 459.73300171 60.75439835 10.000000
-66.33959961 398.42800903 -9.08193016 10.000000
-97.50050354 456.87298584 68.65270233 10.000000
-53.51480103 331.83499146 31.66500092 10.000000
-106.08200073 466.32199097 67.10220337 10.000000
-101.56500244 465.80899048 72.69110107 10.000000
-106.88500214 471.49200439 71.99780273 10.000000
-95.19360352 464.20001221 77.24130249 10.000000
-113.90000153 482.48599243 74.00749969 10.000000
-63.07740021 389.44699097 -20.98640060 10.000000
-109.28800201 481.13598633 79.29769897 10.000000
-80.06999969 456.36801147 -11.18309975 10.000000
-104.07800293 476.32598877 80.13780212 10.000000
-99.91480255 475.47000122 86.01999664 10.000000
-94.82869720 470.58200073 85.94409943 10.000000
-115.55699921 487.81500244 78.76779938 10.000000
-68.11810303 385.41699219 -0.07295000 10.000000
-104.81999969 480.56698608 85.95929718 10.000000
-72.55860138 393.52700806 6.19854021 10.000000
-148.22500610 554.32598877 35.88750076 10.000000
-66.56269836 406.57400513 63.59569931 10.000000
-64.61579895 424.61801147 71.80879974 10.000000
-144.47599792 554.81097412 27.23310089 10.000000
-141.00999451 553.41198730 20.97459984 10.000000
-162.46800232 566.69598389 66.29920197 10.000000
-158.88299561 568.18103027 52.12860107 10.000000
-152.45399475 568.79797363 27.09289932 10.000000
-155.27200317 575.22802734 25.86540031 10.000000
-65.22489929 439.15301514 79.42530060 10.000000
-168.72200012 576.61102295 70.11720276 10.000000
-159.66200256 581.73101807 26.15340042 10.000000
-169.67900085 589.68499756 53.06769943 10.000000
-171.09100342 595.37799072 40.99940109 10.000000
-138.72799683 521.47302246 45.23229980 10.000000
-138.11300659 531.38000488 37.01470184 10.000000
-136.89199829 535.47302246 29.03870010 10.000000
-159.64900208 572.63800049 42.04150009 10.000000
-96.01480103 448.34899902 61.09740067 10.000000
-91.99680328 449.39001465 67.09980011 10.000000
-148.72999573 571.61700439 14.06789970 10.000000
-149.92399597 574.46099854 7.02573013 10.000000
-148.07400513 562.37298584 24.97010040 10.000000
-99.18669891 444.24301147 49.24810028 10.000000
-147.64700317 549.68701172 43.11270142 10.000000
-132.53999329 549.29699707 8.72809982 10.000000
-90.57230377 463.88400269 82.69979858 10.000000
-138.61700439 546.62500000 23.12120056 10.000000
-135.00799561 546.43701172 15.97840023 10.000000
-92.54399872 440.88299561 54.73889923 10.000000
-88.02179718 458.35900879 79.09629822 10.000000
-95.92539978 435.45901489 45.02790070 10.000000
-91.65899658 455.74798584 72.78569794 10.000000
-82.67710114 457.71200562 83.85209656 10.000000
-133.33200073 537.44799805 14.92350006 10.000000
-129.29600525 539.45599365 3.88969994 10.000000
-155.18600464 570.30700684 33.92900085 10.000000
-125.46399689 535.39300537 -4.69256020 10.000000
-83.52780151 452.95300293 77.56109619 10.000000
-101.42299652 426.74600220 29.62249947 10.000000
-91.47869873 428.75500488 45.61989975 10.000000
-85.59760284 445.00201416 68.31250000 10.000000
-96.93609619 421.45199585 31.04179955 10.000000
-97.20690155 477.14099121 93.16300201 10.000000
-90.76850128 434.62899780 49.92110062 10.000000
-86.54740143 435.72100830 55.63499832 10.000000
-89.19889832 468.11801147 90.17179871 10.000000
-108.97399902 487.40899658 91.05799866 10.000000
-103.20300293 483.15701294 93.20179749 10.000000
-119.41899872 487.88299561 72.78150177 10.000000
-123.19599915 503.22100830 91.16310120 10.000000
-118.73500061 500.62399292 95.91339874 10.000000
-100.05100250 470.33898926 78.13520050 10.000000
-113.21499634 496.14999390 98.22010040 10.000000
-101.78600311 450.55801392 52.92520142 10.000000
-90.15670013 443.18499756 61.17739868 10.000000
-108.30100250 491.06298828 98.18669891 10.000000
-124.45999908 497.87600708 78.80210114 10.000000
-98.69010162 433.59799194 37.87189865 10.000000
-83.88400269 462.51199341 89.00219727 10.000000
-100.33100128 440.20999146 41.27560043 10.000000
-100.67299652 453.64099121 59.87829971 10.000000
-109.57599640 455.60101318 39.74599838 10.000000
-95.82250214 414.53601074 27.93580055 10.000000
-95.80249786 426.55700684 35.93339920 10.000000
-89.08029938 420.37399292 42.12099838 10.000000
-92.14019775 407.33999634 27.23170090 10.000000
-26.40360069 323.21600342 61.31859970 10.000000
-3.53034997 262.54699707 46.41199875 10.000000
-16.27610016 222.65400696 26.34280014 10.000000
-19.33909988 206.47399902 21.30629921 10.000000
-8.67560959 243.42599487 37.86220169 10.000000
-17.18729973 200.35200500 38.12620163 10.000000
14.94149971 164.64300537 13.73600006 10.000000
-20.30270004 198.41299438 19.19199944 10.000000
-26.17560005 226.35699463 7.17364979 10.000000
-22.94960022 216.45700073 15.03579998 10.000000
-88.16320038 394.02600098 23.19779968 10.000000
-89.65270233 400.65200806 25.71279907 10.000000
-21.66300011 314.60198975 62.86069870 10.000000
-84.39479828 411.71499634 43.47859955 10.000000
-84.65869904 425.59399414 50.77259827 10.000000
-84.08519745 439.23498535 62.19309998 10.000000
-79.27929688 443.91500854 71.41739655 10.000000
-148.35499573 545.28198242 48.77519989 10.000000
-88.97879791 428.43499756 15.97570038 10.000000
-87.08580017 433.40200806 10.87240028 10.000000
-167.43400574 586.73297119 46.99990082 10.000000
-81.11139679 431.38400269 5.83147001 10.000000
-85.93219757 419.45800781 16.01600075 10.000000
-82.87619781 424.47698975 10.07100010 10.000000
-102.46399689 474.76501465 -3.57714009 10.000000
-100.76699829 479.61099243 -10.92510033 10.000000
-82.37920380 408.55899048 15.56809998 10.000000
-80.17530060 413.39898682 10.82670021 10.000000
-77.58709717 418.57501221 6.52893019 10.000000
-69.78089905 445.74200439 81.76860046 10.000000
-68.98449707 423.43099976 66.08830261 10.000000
-77.16970062 407.37799072 8.84440041 10.000000
-77.36489868 424.67401123 57.52769852 10.000000
-72.70890045 429.56799316 64.84079742 10.000000
-65.53130341 431.67098999 74.65329742 10.000000
-60.90240097 430.39898682 80.93969727 10.000000
-76.59770203 454.95001221 86.71260071 10.000000
-78.45369720 434.86300659 62.65019989 10.000000
-85.39959717 405.24700928 36.27180099 10.000000
-74.44709778 406.66900635 53.64810181 10.000000
-71.52799988 409.61499023 59.64799881 10.000000
-72.45960236 434.88101196 69.68460083 10.000000
-81.89679718 430.48001099 55.99829865 10.000000
-80.23249817 404.34100342 44.30289841 10.000000
-91.78929901 472.05499268 95.93160248 10.000000
-115.88999939 480.48999023 67.00890350 10.000000
-76.12220001 450.18399048 81.29840088 10.000000
-116.74500275 495.60800171 90.93540192 10.000000
-126.55200195 486.70498657 40.73929977 10.000000
-121.19499969 498.20001221 86.15280151 10.000000
-65.33380127 413.39300537 66.42769623 10.000000
-60.47760010 413.50799561 73.73229980 10.000000
-79.94049835 413.45401001 50.04159927 10.000000
-71.88130188 440.50201416 74.98400116 10.000000
-76.02639771 416.42498779 56.11360168 10.000000
-70.45240021 416.59698486 62.59970093 10.000000
-58.29890060 421.36898804 81.41799927 10.000000
-91.11180115 415.38699341 33.16979980 10.000000
-102.83499908 485.54800415 99.98570251 10.000000
-155.79400635 549.55401611 69.06120300 10.000000
-153.90600586 552.46997070 62.03210068 10.000000
-152.11500549 542.33898926 72.03170013 10.000000
-150.21400452 542.28900146 63.90259933 10.000000
-164.75900269 563.60498047 75.08660126 10.000000
-170.47300720 570.67602539 78.26809692 10.000000
-85.72409821 460.73999023 -9.62817001 10.000000
-83.30879974 449.13198853 -5.55441999 10.000000
-82.61900330 388.71099854 25.64699936 10.000000
-75.67350006 398.55099487 10.22529984 10.000000
-68.02770233 412.45098877 -9.98151016 10.000000
-81.56109619 378.69000244 21.65360069 10.000000
-76.79579926 433.52301025 0.15856200 10.000000
-78.17510223 372.27801514 21.27820015 10.000000
-74.78589630 395.52801514 46.91780090 10.000000
-70.37010193 396.72799683 53.63660049 10.000000
-84.18939972 418.33401489 47.24480057 10.000000
-72.03700256 434.41299438 -5.12765980 10.000000
-68.96810150 401.44299316 59.05870056 10.000000
-74.92729950 385.46099854 41.02259827 10.000000
-73.78099823 365.54699707 21.87739944 10.000000
-12.87409973 215.45199585 37.03540039 10.000000
-15.34080029 207.58599854 34.95920181 10.000000
-8.83584023 230.44999695 41.01449966 10.000000
-6.68614006 239.32600403 47.08789825 10.000000
-66.26689911 405.40399170 -15.05760002 10.000000
-85.51210022 442.85198975 3.43781996 10.000000
-86.67179871 466.82501221 -14.74940014 10.000000
-79.55989838 397.64001465 41.68690109 10.000000
-18.35689926 213.42100525 23.33939934 10.000000
-3.69634008 126.56199646 -12.12129974 10.000000
-19.27330017 190.72399902 -2.31048989 10.000000
-27.92770004 233.45700073 -15.97760010 10.000000
-81.84179688 391.46099854 19.21050072 10.000000
-76.88950348 386.46701050 16.05859947 10.000000
-72.77030182 386.49798584 10.11999989 10.000000
-20.21899986 200.37199402 9.97912025 10.000000
-10.52270031 223.36099243 40.05739975 10.000000
-5.42905998 251.80200195 46.26699829 10.000000
-16.52379990 201.31900024 31.10770035 10.000000
-70.16919708 368.39599609 37.16009903 10.000000
-62.11190033 361.37600708 53.12220001 10.000000
-66.64679718 365.59298706 43.87220001 10.000000
-70.67910004 374.54400635 40.86449814 10.000000
-68.99579620 379.43399048 47.07509995 10.000000
-66.21859741 374.39300537 51.19469833 10.000000
-54.98360062 364.42098999 76.05319977 10.000000
-63.12110138 375.41101074 60.14619827 10.000000
-58.15459824 372.40701294 74.13050079 10.000000
-12.11190033 167.40299988 1.05768001 10.000000
-23.03720093 213.41400146 7.05155993 10.000000
15.10210037 144.36999512 2.21128011 10.000000
-19.71789932 197.49400330 2.97509003 10.000000
10.07870007 138.45199585 1.05078995 10.000000
-21.58729935 205.54299927 3.88209009 10.000000
-66.65010071 304.72000122 -51.13069916 10.000000
-53.92259979 302.46301270 -15.97329998 10.000000
-47.76869965 280.53698730 -20.03610039 10.000000
-70.67140198 311.88101196 -49.17150116 10.000000
-65.76499939 313.53399658 -40.06909943 10.000000
-71.28289795 319.42300415 -46.71760178 10.000000
-60.19779968 320.44100952 -26.86459923 10.000000
-54.69929886 293.54400635 -27.04470062 10.000000
-51.73350143 293.52899170 -17.08480072 10.000000
-62.09460068 298.33099365 -50.91210175 10.000000
-59.45569992 296.77099609 -44.15790176 10.000000
-66.72319794 324.49099731 -38.07249832 10.000000
-53.47359848 289.18200684 -32.86140060 10.000000
-62.47760010 326.52899170 -30.24360085 10.000000
-51.59880066 286.61801147 -26.05640030 10.000000
-71.26119995 326.39099121 -45.76549911 10.000000
-71.87760162 333.47198486 -46.02230072 10.000000
-60.74800110 306.50900269 -33.09140015 10.000000
-57.58779907 310.55999756 -22.22739983 10.000000
-69.10610199 338.47900391 -41.84030151 10.000000
-63.09000015 304.38000488 -42.89339828 10.000000
-59.24029922 299.33801270 -36.87340164 10.000000
-48.21580124 287.32901001 -15.74909973 10.000000
-60.57099915 340.65899658 25.93180084 10.000000
-61.34930038 313.51000977 -31.35580063 10.000000
-64.53510284 354.70800781 37.85680008 10.000000
-55.12599945 311.42098999 -14.89400005 10.000000
-22.05220032 209.45300293 13.03740025 10.000000
-12.36120033 224.55099487 32.21319962 10.000000
-60.34099960 363.74499512 60.67190170 10.000000
-67.64379883 358.42199707 -43.19250107 10.000000
-73.19499969 371.35000610 27.09189987 10.000000
-59.30680084 368.31500244 68.20700073 10.000000
-65.49649811 349.67300415 21.67460060 10.000000
-74.56449890 377.61499023 32.92380142 10.000000
-61.55749893 385.53601074 64.81510162 10.000000
-71.16439819 386.33300781 47.19639969 10.000000
-66.48780060 387.53900146 55.80939865 10.000000
-65.84680176 350.45001221 -38.02809906 10.000000
-56.35449982 300.60501099 -24.13619995 10.000000
-60.80110168 375.50799561 66.95580292 10.000000
-68.21080017 359.33099365 27.07089996 10.000000
-57.59040070 410.55700684 80.94429779 10.000000
-63.89179993 358.47399902 44.01259995 10.000000
-78.35369873 382.73999023 26.66749954 10.000000
-64.21589661 392.38000488 61.23070145 10.000000
-60.89479828 392.47000122 68.01270294 10.000000
-64.76300049 367.52700806 50.95130157 10.000000
-62.09899902 399.41699219 67.14320374 10.000000
-58.33549881 397.45098877 76.17040253 10.000000
-61.87720108 406.47100830 68.99729919 10.000000
-55.90349960 372.46701050 81.01100159 10.000000
-84.64430237 399.65301514 30.85610008 10.000000
-57.13489914 402.36300659 81.10079956 10.000000
-81.13950348 394.34100342 34.13439941 10.000000
-57.99420166 317.45300293 -19.94820023 10.000000
-78.79650116 387.52301025 31.98390007 10.000000
-57.94599915 385.45800781 78.03659821 10.000000
-60.80410004 336.47100830 -25.02949905 10.000000
-59.10540009 335.43899536 -17.94400024 10.000000
-64.33409882 359.47601318 -36.81510162 10.000000
-62.74259949 352.46499634 -30.01709938 10.000000
-64.98670197 366.46600342 -39.94329834 10.000000
-67.96140289 331.45999146 -39.94340134 10.000000
-60.21099854 349.44100952 -20.91390038 10.000000
-64.52030182 334.42001343 -33.14640045 10.000000
-59.43370056 326.54998779 -22.07939911 10.000000
-60.85200119 357.46398926 -22.99830055 10.000000
-57.35829926 323.37399292 -15.83339977 10.000000
-70.31829834 348.55599976 -44.58670044 10.000000
-59.40420151 344.43600464 -16.04579926 10.000000
-63.71189880 384.46600342 -41.08430099 10.000000
-51.75880051 307.53500366 -10.13199997 10.000000
-56.28120041 293.24200439 -38.93239975 10.000000
-53.08700180 315.40100098 -8.82089043 10.000000
-67.83209991 361.50201416 35.01449966 10.000000
-63.18949890 392.42700195 -38.80260086 10.000000
-62.68080139 361.45401001 -30.01140022 10.000000
-58.50780106 345.48999023 -8.98633957 10.000000
-61.56340027 366.48498535 -23.09560013 10.000000
-63.05059814 399.48199463 -37.89490128 10.000000
-61.43600082 373.51901245 -21.10090065 10.000000
-59.46250153 352.40701294 -14.10949993 10.000000
-62.69499969 375.44799805 -36.03400040 10.000000
-47.20370102 293.28601074 -11.69900036 10.000000
-61.76850128 380.45999146 -27.99020004 10.000000
-55.79069901 324.49499512 -9.04006004 10.000000
-57.45600128 333.54998779 -9.07124043 10.000000
-65.11029816 343.48999023 -35.87429810 10.000000
-62.77750015 342.44100952 -29.04990005 10.000000
-62.26770020 370.46600342 -30.93939972 10.000000
-65.33899689 353.26998901 29.16530037 10.000000
-103.31900024 448.24899292 45.19079971 10.000000
-112.55200195 450.81698608 33.70610046 10.000000
-106.71099854 455.61801147 46.93740082 10.000000
-105.96700287 457.43099976 54.04740143 10.000000
-110.03099823 462.41000366 49.04159927 10.000000
-112.10700226 462.34100342 41.19139862 10.000000
-108.91699982 463.46701050 56.02159882 10.000000
-109.80200195 489.57299805 -14.96700001 10.000000
-115.73200226 498.52700806 -13.95810032 10.000000
-114.22499847 494.26098633 -4.95623016 10.000000
-117.95899963 500.43798828 -2.95579004 10.000000
-123.98000336 479.40701294 38.05659866 10.000000
-115.21399689 471.22198486 45.19879913 10.000000
-112.73799896 468.55599976 51.98469925 10.000000
-122.06500244 508.38500977 -1.97680998 10.000000
-117.58599854 478.62701416 49.99629974 10.000000
-121.12699890 502.38900757 7.99101019 10.000000
-114.00700378 473.36401367 57.04029846 10.000000
-121.26100159 482.23901367 44.34569931 10.000000
-109.85900116 468.52200317 60.97249985 10.000000
-119.26599884 496.28500366 14.94509983 10.000000
-119.60099792 505.61199951 -9.89383984 10.000000
-117.85700226 495.49499512 7.02681017 10.000000
-109.84799957 480.51199341 3.04222989 10.000000
-62.48410034 411.53900146 -34.06179810 10.000000
-113.55799866 495.75299072 -20.92799950 10.000000
-61.84759903 380.47399902 -18.97730064 10.000000
-60.61980057 368.50000000 -15.97679996 10.000000
-65.22779846 373.53100586 -42.81880188 10.000000
-59.85139847 363.46899414 -10.98600006 10.000000
-58.65579987 355.49398804 -6.98186016 10.000000
-65.91149902 380.46600342 55.01910019 10.000000
-57.19570160 392.45999146 81.21199799 10.000000
-62.41299820 419.68798828 -31.15329933 10.000000
-61.85919952 388.46099854 -30.97220039 10.000000
-62.22200012 378.38500977 -12.00380039 10.000000
-64.13619995 377.41299438 -4.05174017 10.000000
-56.81930161 339.49600220 -4.04732990 10.000000
-59.37480164 382.48699951 71.73000336 10.000000
-57.36640167 346.33099365 -1.77506006 10.000000
-54.20610046 329.40200806 -3.72354007 10.000000
-47.13449860 302.40701294 -6.79924011 10.000000
-47.90319824 278.47299194 -28.97680092 10.000000
-45.13779831 273.35501099 -19.76919937 10.000000
-58.01079941 292.38400269 -52.94309998 10.000000
-40.04959869 270.42001343 -15.86900043 10.000000
-54.68939972 289.66500854 -46.02130127 10.000000
-50.15259933 283.28799438 -35.99720001 10.000000
-51.76350021 321.51800537 -4.02761984 10.000000
-42.21799850 277.32998657 -14.71380043 10.000000
-43.22510147 284.35501099 -11.69519997 10.000000
-36.93479919 263.46200562 -14.96310043 10.000000
-61.88430023 404.46499634 -32.97760010 10.000000
-105.65799713 471.62799072 8.13601971 10.000000
-106.62899780 485.74899292 -9.91952991 10.000000
-110.26699829 479.31100464 9.96792984 10.000000
-114.40799713 488.78201294 5.05869007 10.000000
-113.86000061 485.48800659 13.03359985 10.000000
-112.74800110 480.53298950 18.07209969 10.000000
-124.88300323 514.47900391 2.02593994 10.000000
-123.73100281 509.56399536 7.05239010 10.000000
-121.82499695 499.50201416 21.04940033 10.000000
-107.88899994 488.51300049 -21.97470093 10.000000
-104.68099976 484.77801514 -16.88649940 10.000000
-128.87100220 500.48699951 61.02349854 10.000000
-125.60099792 494.64999390 63.97370148 10.000000
-100.05300140 482.28201294 -23.00550079 10.000000
-138.45100403 514.02398682 45.67620087 10.000000
-133.39399719 509.16699219 48.39379883 10.000000
-130.60600281 505.64898682 55.04109955 10.000000
-121.91500092 487.46701050 49.02310181 10.000000
-120.47799683 483.73498535 56.91080093 10.000000
-122.68199921 488.59399414 61.97959900 10.000000
-126.18199921 496.28799438 71.07029724 10.000000
-115.73600006 491.67001343 84.92140198 10.000000
-126.17800140 492.30899048 45.25189972 10.000000
-135.04899597 515.35998535 52.09149933 10.000000
-127.56300354 498.67199707 49.83269882 10.000000
-133.82800293 510.50299072 64.99349976 10.000000
-143.76400757 525.57598877 47.86420059 10.000000
-130.79100037 496.62100220 41.93339920 10.000000
-131.49499512 505.77301025 69.96720123 10.000000
-126.87799835 503.49798584 83.00009918 10.000000
-126.79399872 514.51300049 12.03699970 10.000000
-112.63099670 474.71701050 63.88639832 10.000000
-110.16000366 488.27801514 -4.05354023 10.000000
-139.66700745 524.57098389 53.91859818 10.000000
-131.67599487 502.61999512 45.76890182 10.000000
-120.70999908 505.70700073 100.89199829 10.000000
-137.61900330 517.61499023 60.05530167 10.000000
-128.12199402 521.39898682 6.94499016 10.000000
-146.82400513 532.56298828 48.95610046 10.000000
-135.06799316 512.37902832 72.04560089 10.000000
-132.09500122 508.44400024 77.11959839 10.000000
-128.56700134 513.77001953 99.85060120 10.000000
-139.48199463 519.73400879 73.02410126 10.000000
-132.74600220 512.57299805 83.95490265 10.000000
-147.65699768 538.65802002 52.79850006 10.000000
-129.21699524 510.21398926 90.19899750 10.000000
-143.89700317 533.47698975 56.02379990 10.000000
-142.62399292 526.67498779 62.94509888 10.000000
-138.59899902 520.72198486 82.80919647 10.000000
-139.86999512 524.52398682 91.98419952 10.000000
-111.06700134 486.30398560 84.09700012 10.000000
-135.96400452 522.41998291 99.04090118 10.000000
-146.90199280 534.47198486 64.04640198 10.000000
-136.62399292 525.78802490 105.84500122 10.000000
-145.22599792 530.92797852 70.02359772 10.000000
-143.30799866 526.11199951 75.08370209 10.000000
-140.55599976 527.81500244 98.93650055 10.000000
-142.81700134 526.53997803 83.00460052 10.000000
-147.01199341 532.27301025 83.09049988 10.000000
-144.97399902 530.41601563 90.02690125 10.000000
-145.43899536 532.99902344 97.19090271 10.000000
-143.80799866 532.56896973 103.99099731 10.000000
-128.36500549 516.93701172 106.32900238 10.000000
-133.51600647 516.77600098 91.81230164 10.000000
-114.74299622 499.79199219 104.95200348 10.000000
-149.65199280 534.69799805 77.04630280 10.000000
-150.48800659 538.88800049 101.97299957 10.000000
-145.25100708 569.19097900 5.92607021 10.000000
-133.65499878 532.54400635 20.03619957 10.000000
-144.52499390 565.79199219 13.15079975 10.000000
-152.94000244 539.45300293 81.02760315 10.000000
-150.76300049 537.62701416 91.98889923 10.000000
-147.16200256 537.22601318 108.13099670 10.000000
-137.87800598 562.51000977 -5.98942995 10.000000
-151.54400635 547.69000244 54.72380066 10.000000
-131.57899475 526.59301758 16.03260040 10.000000
-151.69000244 542.67602539 109.91899872 10.000000
-155.16999817 543.29797363 87.07569885 10.000000
-122.43699646 509.93798828 106.81999969 10.000000
-154.53999329 542.83197021 95.85459900 10.000000
-148.49600220 573.00402832 -3.41127992 10.000000
-143.10899353 568.27600098 -1.96025002 10.000000
-155.55099487 544.81799316 103.88999939 10.000000
-140.07600403 530.28698730 111.08499908 10.000000
-131.76300049 522.65399170 109.88899994 10.000000
-125.65599823 493.60800171 57.00070190 10.000000
-154.80700684 578.62500000 -2.08421993 10.000000
-153.83399963 579.53100586 10.02880001 10.000000
-158.39500427 557.84698486 54.53509903 10.000000
-163.83900452 586.55999756 -1.03020000 10.000000
-158.73199463 584.67602539 3.98143005 10.000000
-158.83399963 549.55700684 107.98600006 10.000000
-159.24600220 549.22900391 78.97290039 10.000000
-159.80999756 549.52697754 97.95400238 10.000000
-165.66000366 555.66699219 94.97979736 10.000000
-164.49600220 554.81402588 103.99800110 10.000000
-163.12399292 555.27697754 111.06800079 10.000000
-170.60000610 562.71099854 95.96450043 10.000000
-169.60099792 561.66400146 107.91300201 10.000000
-164.59899902 569.70001221 56.80640030 10.000000
-155.83900452 547.54901123 114.00499725 10.000000
-170.14399719 563.15399170 114.96299744 10.000000
-167.89500427 576.48199463 58.01060104 10.000000
-174.23599243 568.25000000 99.13500214 10.000000
-161.50799561 551.72497559 87.03099823 10.000000
-175.60099792 568.72100830 105.99500275 10.000000
-170.65800476 582.65899658 59.82379913 10.000000
-182.81399536 580.53601074 96.04750061 10.000000
-194.00799561 617.31298828 7.14348984 10.000000
-200.80999756 623.78997803 9.81445980 10.000000
-194.31300354 622.01898193 12.45969963 10.000000
-178.40199280 573.84497070 97.92209625 10.000000
-205.76100159 628.87402344 13.62380028 10.000000
-178.97799683 573.41198730 111.02999878 10.000000
-174.93800354 568.44097900 115.01999664 10.000000
-203.99899292 635.33001709 22.09189987 10.000000
-216.85200500 639.59899902 19.87170029 10.000000
-223.99200439 643.24401855 21.33970070 10.000000
-198.47399902 631.92498779 24.79940033 10.000000
-209.97599792 639.37298584 22.10519981 10.000000
-169.60000610 565.59399414 83.05159760 10.000000
-199.44700623 635.91400146 32.89609909 10.000000
-207.07800293 641.20697021 29.16250038 10.000000
-225.96000671 649.34698486 24.21940041 10.000000
-195.63000488 631.68200684 37.01810074 10.000000
-188.44900513 613.01898193 7.59945011 10.000000
-218.99899292 647.30999756 25.18950081 10.000000
-217.63499451 652.96697998 34.85279846 10.000000
-233.89799500 658.52099609 28.96159935 10.000000
-204.45399475 642.89501953 44.90520096 10.000000
-164.96299744 558.43597412 82.02290344 10.000000
-199.17599487 629.15899658 18.20549965 10.000000
-200.85899353 639.50897217 50.03570175 10.000000
-212.03100586 648.30700684 35.11040115 10.000000
-242.87800598 661.68499756 30.70339966 10.000000
-226.91999817 656.46697998 30.02379990 10.000000
-199.17999268 630.20501709 68.27369690 10.000000
-213.97700500 653.38897705 41.07289886 10.000000
-183.45700073 578.83801270 110.94300079 10.000000
-210.95100403 634.35601807 17.15550041 10.000000
-247.94999695 666.56500244 33.76210022 10.000000
-197.48399353 630.83099365 57.81050110 10.000000
-232.91499329 663.47497559 34.01359940 10.000000
-182.00599670 574.20001221 117.87300110 10.000000
-208.88800049 648.49298096 43.02040100 10.000000
-202.42100525 638.76300049 57.94990158 10.000000
-224.80799866 659.64801025 35.89799881 10.000000
-193.81700134 625.57397461 20.96890068 10.000000
-204.04100037 636.37298584 68.08290100 10.000000
-211.87399292 652.53601074 47.97650146 10.000000
-184.90899658 607.48101807 4.01472998 10.000000
-207.55099487 648.73797607 52.03820038 10.000000
-241.90199280 669.52502441 35.95349884 10.000000
-193.48699951 627.84899902 27.90629959 10.000000
-206.75000000 645.59997559 58.96409988 10.000000
-220.04899597 659.25701904 41.16910172 10.000000
-204.90199280 642.48400879 36.01539993 10.000000
-227.99899292 665.36901855 40.12220001 10.000000
-254.91400146 674.24902344 38.22999954 10.000000
-247.97900391 673.28497314 37.23149872 10.000000
-189.62100220 621.66900635 25.93440056 10.000000
-234.70799255 668.82000732 38.72100067 10.000000
-183.05700684 609.35498047 11.05200005 10.000000
-216.54499817 657.80401611 47.93920135 10.000000
-236.02900696 674.27197266 44.15850067 10.000000
-250.94599915 680.39801025 42.10029984 10.000000
-188.62500000 617.70202637 19.89220047 10.000000
-223.51699829 666.81298828 49.95589828 10.000000
-264.88598633 683.59698486 42.76399994 10.000000
-212.56799316 650.78802490 71.84069824 10.000000
-183.56900024 612.89202881 25.87089920 10.000000
-210.64399719 651.87298584 61.04240036 10.000000
-200.27200317 638.14099121 40.12260056 10.000000
-206.85299683 647.51397705 75.00589752 10.000000
-178.68299866 607.66198730 27.95949936 10.000000
-191.30599976 618.13000488 66.39820099 10.000000
-244.11900330 679.17700195 44.30239868 10.000000
-219.64900208 664.70300293 56.00180054 10.000000
-257.92898560 681.44097900 41.05659866 10.000000
-193.61900330 624.69097900 55.84719849 10.000000
-229.78500366 671.65997314 46.89709854 10.000000
-216.40100098 659.89501953 60.03020096 10.000000
-213.74200439 656.61798096 65.99819946 10.000000
-231.87500000 676.51800537 52.99499893 10.000000
-187.24000549 615.20397949 53.07789993 10.000000
-260.04098511 688.15600586 45.47079849 10.000000
-269.94198608 689.61499023 45.59740067 10.000000
-187.38000488 612.08599854 65.45349884 10.000000
-198.91200256 635.47100830 73.02120209 10.000000
-226.62899780 672.77099609 55.85789871 10.000000
-253.07899475 686.17102051 46.30709839 10.000000
-217.89999390 662.48498535 69.01820374 10.000000
-222.19200134 667.25598145 62.01330185 10.000000
-216.29100037 657.11102295 73.48799896 10.000000
-195.26899719 624.15301514 67.40360260 10.000000
-240.04600525 681.24102783 50.18429947 10.000000
-184.22000122 615.17602539 33.07680130 10.000000
-239.84700012 685.55297852 55.98410034 10.000000
-213.53700256 657.84497070 84.92479706 10.000000
-226.77099609 673.57598877 65.99289703 10.000000
-268.91400146 696.48498535 48.99470139 10.000000
-254.06500244 691.21099854 51.21340179 10.000000
-276.96200562 698.55700684 49.64690018 10.000000
-202.53199768 640.71697998 77.05159760 10.000000
-234.65899658 682.76202393 59.84140015 10.000000
-223.52400208 667.84100342 75.52970123 10.000000
-261.99301147 695.33001709 50.16630173 10.000000
-190.57000732 624.72100830 34.03099823 10.000000
-247.70799255 689.83502197 54.65940094 10.000000
-188.93899536 622.43298340 41.05870056 10.000000
-217.69700623 663.64697266 76.74530029 10.000000
-226.15499878 674.22802734 77.52570343 10.000000
-258.77999878 698.71899414 55.81430054 10.000000
-274.84600830 704.70098877 52.64530182 10.000000
-219.39599609 666.80401611 86.95749664 10.000000
-207.63099670 647.72497559 83.91699982 10.000000
-281.91101074 704.42102051 52.14770126 10.000000
-199.82200623 633.52697754 82.00869751 10.000000
-252.02900696 695.26501465 57.25289917 10.000000
-268.02801514 702.26501465 53.26390076 10.000000
-207.43600464 647.77398682 65.96939850 10.000000
-233.96800232 683.40802002 67.04609680 10.000000
-215.64599609 661.70098877 90.92780304 10.000000
-243.06799316 690.24902344 60.16289902 10.000000
-229.67300415 678.68200684 69.94979858 10.000000
-208.56399536 610.91802979 117.37100220 10.000000
-190.51899719 620.72497559 50.13489914 10.000000
-223.73899841 673.61798096 87.90229797 10.000000
-226.14700317 679.27001953 92.24160004 10.000000
-207.19000244 642.23901367 70.33460236 10.000000
-192.98300171 628.38598633 43.04800034 10.000000
-189.48699951 589.76702881 99.06439972 10.000000
-189.99299622 587.41302490 106.00900269 10.000000
-206.79200745 615.52398682 109.07099915 10.000000
-182.15199280 607.25897217 67.12229919 10.000000
-184.15899658 604.30700684 76.01740265 10.000000
-234.49000549 685.83898926 73.77519989 10.000000
-232.50500488 684.91101074 80.64379883 10.000000
-230.77900696 684.61901855 87.98320007 10.000000
-196.68200684 626.59497070 82.03240204 10.000000
-238.00000000 691.37597656 81.13120270 10.000000
-234.57000732 690.74200439 89.91760254 10.000000
-238.98899841 689.39398193 66.06240082 10.000000
-210.62800598 653.66198730 77.99980164 10.000000
-221.66200256 668.58898926 96.02950287 10.000000
-247.97599792 701.38500977 72.05799866 10.000000
-241.60699463 703.67901611 95.78340149 10.000000
-246.83399963 701.56701660 81.91079712 10.000000
-229.81399536 677.56402588 60.00030136 10.000000
-219.97200012 633.45397949 119.89099884 10.000000
-251.58599854 699.92797852 63.64070129 10.000000
-178.19599915 600.27502441 66.13839722 10.000000
-185.82200623 616.52502441 45.06290054 10.000000
-184.03799438 580.35797119 103.99900055 10.000000
-182.75000000 609.59399414 53.00350189 10.000000
-233.47999573 690.71997070 101.06099701 10.000000
-259.03500366 707.32202148 63.14160156 10.000000
-251.97200012 709.40600586 84.08570099 10.000000
-193.67199707 620.58398438 80.05079651 10.000000
-202.62300110 600.74102783 116.19599915 10.000000
-254.61999512 706.90899658 68.62979889 10.000000
-245.60299683 709.71002197 100.77200317 10.000000
-238.82400513 691.61297607 74.00140381 10.000000
-263.02099609 704.32098389 58.16839981 10.000000
-252.90699768 709.47698975 77.01439667 10.000000
-246.49299622 713.75097656 112.78700256 10.000000
-198.25300598 635.27301025 63.23149872 10.000000
-260.28201294 711.95001221 68.50189972 10.000000
-252.00199890 713.35198975 90.04959869 10.000000
-238.87500000 695.49798584 87.01260376 10.000000
-244.92100525 695.46301270 65.02439880 10.000000
-193.49299622 625.67797852 74.20539856 10.000000
-249.67799377 714.69500732 96.68589783 10.000000
-267.73400879 712.75402832 62.65530014 10.000000
-259.65200806 717.84497070 78.75399780 10.000000
-249.38699341 716.17602539 123.98100281 10.000000
-256.87799072 715.51300049 84.96469879 10.000000
-271.91799927 709.46899414 57.01869965 10.000000
-251.86999512 719.51599121 101.97699738 10.000000
-238.61799622 699.58197021 100.71199799 10.000000
-238.43600464 697.75500488 108.12000275 10.000000
-243.07000732 697.24597168 75.10649872 10.000000
-251.48800659 721.83697510 113.66999817 10.000000
-256.99899292 721.38800049 95.10790253 10.000000
-261.12899780 721.20800781 86.32199860 10.000000
-268.71701050 718.88299561 66.63749695 10.000000
-241.20300293 701.30401611 117.05200195 10.000000
-263.66101074 717.83697510 71.71800232 10.000000
-241.14500427 695.30401611 126.06199646 10.000000
-230.14599609 684.34802246 97.02590179 10.000000
-243.73899841 702.66400146 88.94490051 10.000000
-265.11401367 725.22198486 81.29869843 10.000000
-242.07400513 704.41101074 109.04499817 10.000000
-247.17300415 708.18200684 92.17220306 10.000000
-212.82699585 651.50500488 95.03970337 10.000000
-269.92300415 723.46099854 72.02690125 10.000000
-257.54199219 726.91302490 99.49099731 10.000000
-276.04098511 718.26599121 62.28599930 10.000000
-271.60299683 732.84997559 82.67240143 10.000000
-260.54598999 734.76300049 113.73899841 10.000000
-246.47999573 710.14099121 126.04799652 10.000000
-278.83200073 729.64202881 69.79160309 10.000000
-268.03900146 730.32397461 88.17620087 10.000000
-265.04000854 732.33697510 97.13110352 10.000000
-193.60200500 596.65197754 98.10310364 10.000000
-257.46899414 731.79400635 121.99900055 10.000000
-237.62100220 696.72198486 93.84729767 10.000000
-263.59799194 734.73999023 103.72799683 10.000000
-273.83499146 729.60198975 74.86840057 10.000000
-187.20100403 617.24798584 60.03739929 10.000000
-190.59599304 586.85101318 113.09200287 10.000000
-275.63400269 740.78900146 90.60089874 10.000000
-252.09300232 722.33697510 122.01599884 10.000000
-268.73098755 742.66198730 105.84500122 10.000000
-254.67500305 724.68402100 106.01499939 10.000000
-279.86999512 740.53002930 81.98249817 10.000000
-265.74700928 740.61700439 111.94100189 10.000000
-272.83099365 741.56701660 96.96829987 10.000000
-202.99299622 639.42498779 85.02200317 10.000000
-264.42800903 741.87701416 120.90599823 10.000000
-197.45399475 634.83197021 45.91460037 10.000000
-195.54200745 629.12298584 50.76449966 10.000000
-197.64100647 597.65899658 108.07399750 10.000000
-255.85299683 727.52502441 112.98300171 10.000000
-265.66598511 745.65301514 126.81300354 10.000000
-269.79400635 746.60797119 113.90100098 10.000000
-189.80900574 613.52398682 78.04399872 10.000000
-220.58999634 659.62902832 104.10399628 10.000000
-273.87100220 746.53302002 101.91200256 10.000000
-281.16299438 752.17498779 99.23069763 10.000000
-275.85699463 753.54302979 112.95899963 10.000000
-225.65400696 669.60601807 105.08300018 10.000000
-277.63598633 752.81402588 105.77300262 10.000000
-274.49301147 754.87500000 119.79699707 10.000000
-272.69900513 754.66900635 126.67500305 10.000000
-280.51400757 735.01098633 75.39830017 10.000000
-270.06500244 736.26000977 92.13040161 10.000000
-282.01699829 760.37597656 112.05999756 10.000000
-279.66699219 760.70300293 118.79000092 10.000000
