-219.86900330 -96.15879822 -168.21499634 5.000000
-166.38099670 -125.81900024 -157.54699707 5.000000
-256.85000610 -67.07009888 -156.15899658 5.000000
-212.86599731 -94.18800354 -169.62300110 5.000000
-160.80799866 -128.07699585 -154.39999390 5.000000
-229.32800293 -82.67590332 -165.41799927 5.000000
-155.84500122 -130.73899841 -150.52099609 5.000000
-250.38299561 -68.60089874 -157.76499939 5.000000
-175.85099792 -120.04699707 -162.80299377 5.000000
-147.81599426 -135.83399963 -141.63099670 5.000000
-242.84800720 -74.17590332 -160.50999451 5.000000
-219.86199951 -89.18460083 -168.08799744 5.000000
-237.81500244 -78.19300079 -162.37899780 5.000000
-261.33999634 -58.67380142 -152.99000549 5.000000
-161.34399414 -122.23300171 -160.55099487 5.000000
-167.83799744 -120.08699799 -162.35400391 5.000000
-206.35000610 -93.11769867 -169.74800110 5.000000
-222.84500122 -82.15440369 -167.13900757 5.000000
-230.86000061 -76.18489838 -165.06599426 5.000000
-242.32299805 -67.16870117 -160.95199585 5.000000
-216.33099365 -83.21299744 -167.79200745 5.000000
-248.84500122 -62.18199921 -158.49299622 5.000000
-79.64550018 -170.45300293 -170.38299561 5.000000
-237.24899292 -71.13050079 -162.79699707 5.000000
-137.33999634 -133.17500305 -150.47999573 5.000000
-210.37300110 -86.15309906 -168.71699524 5.000000
-230.84599304 -69.17469788 -164.54600525 5.000000
-154.78700256 -119.47899628 -163.80400085 5.000000
-66.28430176 -140.68400574 -199.13200378 5.000000
-225.28900146 -72.66699982 -165.77200317 5.000000
-219.82200623 -76.16870117 -166.92599487 5.000000
-182.37399292 -126.59999847 -157.35299683 5.000000
-272.33401489 -39.17710114 -151.92999268 5.000000
-243.86300659 -58.18909836 -161.53199768 5.000000
-65.87349701 -134.15299988 -199.88699341 5.000000
-132.36599731 -127.25900269 -163.48699951 5.000000
-237.82299805 -60.66690063 -163.43400574 5.000000
-107.13999939 -168.61900330 -146.99699402 5.000000
-87.30740356 -142.03599548 -201.39900208 5.000000
-231.83599854 -62.67499924 -165.97500610 5.000000
-225.99000549 -65.84079742 -168.19200134 5.000000
-275.83801270 -32.68989944 -151.91700745 5.000000
-68.77749634 -187.99600220 -142.42799377 5.000000
-258.96798706 -42.80179977 -157.68299866 5.000000
-268.79199219 -34.14609909 -154.38800049 5.000000
-18.21800041 -245.46699524 -142.85299683 5.000000
-28.28289986 -240.06599426 -145.96899414 5.000000
-187.34100342 -118.16000366 -164.45799255 5.000000
-248.35699463 -47.19549942 -163.49899292 5.000000
-240.09899902 -53.92290115 -165.75000000 5.000000
-70.91500092 -185.40600586 -149.07200623 5.000000
-225.68099976 -61.90650177 -174.30999756 5.000000
-277.35000610 -26.18129921 -151.53799438 5.000000
-179.84599304 -115.16200256 -166.44000244 5.000000
-235.68499756 -55.43320084 -170.51600647 5.000000
-166.37800598 -108.81700134 -170.67599487 5.000000
-55.26779938 -222.01100159 -152.83599854 5.000000
-255.79800415 -39.61619949 -162.94400024 5.000000
-149.32099915 -123.04900360 -160.86999512 5.000000
-67.86260223 -185.72000122 -154.98500061 5.000000
-105.27600098 -136.95399475 -201.41499329 5.000000
-185.33900452 -86.17500305 -187.47999573 5.000000
-188.33799744 -111.69599915 -168.51400757 5.000000
-280.34201050 -20.18309975 -152.00300598 5.000000
-270.62100220 -27.99460030 -156.25100708 5.000000
-265.84399414 -29.68300056 -160.48500061 5.000000
-142.29499817 -111.09600067 -189.43600464 5.000000
-162.74400330 -95.01339722 -191.86000061 5.000000
-134.64300537 -115.89700317 -191.47399902 5.000000
-160.24899292 -93.08149719 -198.44799805 5.000000
-252.82299805 -41.96149826 -204.84500122 5.000000
-168.88499451 -83.75599670 -204.52299500 5.000000
-187.47700500 -77.87030029 -194.11199951 5.000000
-243.81100464 -46.54769897 -198.39999390 5.000000
-123.33000183 -124.05599976 -220.35000610 5.000000
-182.68200684 -82.44210052 -192.34500122 5.000000
-237.75799561 -49.46490097 -196.85699463 5.000000
-231.33799744 -51.49769974 -196.76100159 5.000000
-286.82998657 -8.65717030 -154.45399475 5.000000
-167.81100464 -88.62689972 -197.44400024 5.000000
-253.83799744 -37.11249924 -213.42700195 5.000000
-182.94900513 -77.77639771 -199.11900330 5.000000
-169.69700623 -79.83309937 -210.28700256 5.000000
-117.33000183 -121.60700226 -222.34899902 5.000000
-247.83999634 -38.58140182 -210.41499329 5.000000
-309.34201050 -28.18449974 -188.47399902 5.000000
-230.80499268 -47.02909851 -201.85200500 5.000000
-110.80500031 -121.77200317 -221.11799622 5.000000
-241.80099487 -41.03030014 -207.38000488 5.000000
-177.85699463 -82.20459747 -198.99499512 5.000000
-235.34500122 -43.69409943 -205.49099731 5.000000
-240.83700562 -35.66109848 -215.96899414 5.000000
-173.70100403 -75.00900269 -212.84599304 5.000000
-234.33299255 -39.14080048 -212.94900513 5.000000
-165.05599976 -82.25830078 -215.01499939 5.000000
-243.85200500 -32.13040161 -224.47599792 5.000000
-63.29999924 -188.12100220 -159.97200012 5.000000
-180.76199341 -72.61239624 -205.42599487 5.000000
-231.17900085 -57.47280121 -174.89399719 5.000000
-69.69210052 -183.44999695 -162.42500305 5.000000
-169.67399597 -95.91439819 -176.85200500 5.000000
-156.74200439 -104.01699829 -176.36399841 5.000000
-178.36199951 -69.69219971 -212.00000000 5.000000
-244.69900513 -47.96310043 -168.98500061 5.000000
-60.97949982 -138.07200623 -196.17300415 5.000000
-278.87200928 -16.71299934 -157.49099731 5.000000
-329.85400391 -22.74029922 -188.39900208 5.000000
-108.83300018 -134.65800476 -206.47700500 5.000000
-72.67330170 -177.50300598 -170.46499634 5.000000
-273.94100952 -20.84609985 -161.49600220 5.000000
-229.34300232 -56.18320084 -192.49200439 5.000000
-99.89769745 -139.31300354 -198.00599670 5.000000
-154.71400452 -101.51200104 -190.36500549 5.000000
-223.80900574 -59.60469818 -191.39700317 5.000000
-172.83999634 -114.67700195 -165.97599792 5.000000
-223.29800415 -54.47359848 -195.74499512 5.000000
-176.20300293 -85.94560242 -193.35499573 5.000000
-320.35101318 -24.21349907 -187.91700745 5.000000
-119.31400299 -128.05599976 -216.37300110 5.000000
-173.03199768 -70.83589935 -218.12600708 5.000000
-267.32598877 -44.64899826 -151.42900085 5.000000
-224.85699463 -49.34420013 -199.65199280 5.000000
-216.82699585 -53.62139893 -196.89100647 5.000000
-124.83699799 -135.69099426 -138.48599243 5.000000
-247.83399963 -35.24580002 -216.51600647 5.000000
-207.37600708 -99.70169830 -170.23699951 5.000000
-203.28599548 -86.14800262 -170.28500366 5.000000
-163.19299316 -87.98100281 -203.90699768 5.000000
-212.35099792 -58.22999954 -195.10499573 5.000000
-298.79400635 -30.59729958 -187.67199707 5.000000
-292.91000366 -33.89289856 -188.27900696 5.000000
-204.84899902 -106.69200134 -169.56199646 5.000000
-65.14379883 -185.42100525 -166.95599365 5.000000
-209.28900146 -66.59480286 -191.34899902 5.000000
-62.31769943 -191.16799927 -152.97599792 5.000000
-217.88800049 -32.46210098 -217.31500244 5.000000
-211.41000366 -36.48989868 -211.25599670 5.000000
-203.29299927 -70.58000183 -190.85299683 5.000000
-205.36000061 -37.99810028 -208.23199463 5.000000
-217.30900574 -62.62250137 -191.30999756 5.000000
-200.83299255 -97.67749786 -170.06300354 5.000000
-225.81399536 -31.82509995 -220.58000183 5.000000
-144.88000488 -121.28800201 -166.06100464 5.000000
-221.42199707 -63.32120132 -179.46200562 5.000000
-203.80999756 -76.13169861 -174.93499756 5.000000
-219.38499451 -39.06179810 -211.83999634 5.000000
-216.21499634 -66.96640015 -176.36199951 5.000000
-213.35699463 -43.14149857 -206.91900635 5.000000
-210.75500488 -71.04810333 -175.36399841 5.000000
-208.33500671 -45.68590164 -203.49899292 5.000000
-36.72069931 -223.06500244 -167.82699585 5.000000
-228.35299683 -41.35860062 -211.11999512 5.000000
-211.36799622 -79.21389771 -169.54600525 5.000000
-221.32200623 -46.03889847 -204.89999390 5.000000
-37.77669907 -234.07200623 -153.46400452 5.000000
-215.83599854 -48.64569855 -201.44900513 5.000000
-203.84700012 -59.19260025 -197.02000427 5.000000
-198.34100342 -105.19599915 -170.22000122 5.000000
-32.36109924 -230.70300293 -166.01699829 5.000000
-27.07970047 -234.43400574 -168.86900330 5.000000
-26.24970055 -239.59399414 -164.35000610 5.000000
-198.81700134 -111.58000183 -168.31199646 5.000000
-35.97129822 -233.34100342 -160.07600403 5.000000
-38.35919952 -235.22599792 -146.01199341 5.000000
-17.29039955 -235.63299561 -184.36700439 5.000000
-127.66600037 -121.88999939 -189.35899353 5.000000
-120.71600342 -126.95800018 -189.97000122 5.000000
-176.69299316 -77.98940277 -206.28999329 5.000000
-116.32700348 -134.54699707 -147.46600342 5.000000
-149.90499878 -104.28399658 -193.96099854 5.000000
-58.68840027 -191.51300049 -163.51499939 5.000000
-34.14939880 -186.08700562 -197.25700378 5.000000
-192.25999451 -81.04160309 -178.45899963 5.000000
-8.76714993 -249.14199829 -185.32000732 5.000000
38.18130112 -293.09899902 -207.89700317 5.000000
-199.34300232 -81.18409729 -173.49299622 5.000000
-195.38200378 -117.01599884 -165.72099304 5.000000
-198.78999329 -91.13480377 -170.33900452 5.000000
-189.93499756 -124.60199738 -160.74099731 5.000000
-27.76600075 -215.64300537 -186.92100525 5.000000
-21.18899918 -243.52999878 -165.88699341 5.000000
-39.31560135 -180.15600586 -192.95199585 5.000000
-110.27500153 -134.05099487 -191.49000549 5.000000
-41.92139816 -164.14700317 -187.62699890 5.000000
-190.83799744 -105.68000031 -169.99600220 5.000000
-44.00139999 -224.84599304 -160.17199707 5.000000
-9.36732960 -256.19000244 -185.22999573 5.000000
-15.33850002 -252.18099976 -184.97500610 5.000000
-109.11499786 -150.62699890 -149.96899414 5.000000
-37.31779861 -160.18200684 -190.45799255 5.000000
-3.63276005 -254.98500061 -188.95599365 5.000000
-27.20219994 -212.07800293 -193.85299683 5.000000
-39.99750137 -172.62399292 -191.27099609 5.000000
-61.80469894 -205.68099976 -149.95199585 5.000000
-57.28570175 -209.63400269 -157.93899536 5.000000
-40.26440048 -219.71400452 -182.75199890 5.000000
-28.96030045 -203.24899292 -196.56399536 5.000000
-46.19990158 -208.05700684 -169.95100403 5.000000
-62.34859848 -197.18099976 -146.98500061 5.000000
-59.37260056 -196.68600464 -155.99400330 5.000000
33.04869843 -283.84600830 -214.09700012 5.000000
-32.53290176 -194.33599854 -195.13099670 5.000000
-27.84819984 -194.68099976 -201.49400330 5.000000
-31.03660011 -179.51400757 -201.25599670 5.000000
-32.73680115 -226.57899475 -172.02400208 5.000000
-64.28559875 -214.70799255 -147.82000732 5.000000
-28.48760033 -240.34399414 -153.89900208 5.000000
-13.20779991 -248.50199890 -146.58700562 5.000000
-48.32770157 -208.16600037 -182.08799744 5.000000
31.24259949 -288.06201172 -209.29699707 5.000000
-1.78483999 -262.17300415 -187.90699768 5.000000
-4.30748987 -273.16699219 -142.93699646 5.000000
-1.75100005 -278.16598511 -150.94700623 5.000000
30.13240051 -294.23300171 -206.14500427 5.000000
-23.60160065 -220.02400208 -198.40800476 5.000000
13.24660015 -295.06399536 -159.61099243 5.000000
2.03885007 -283.84799194 -150.61000061 5.000000
8.97352982 -290.38500977 -157.42399597 5.000000
-16.85070038 -248.19000244 -168.48399353 5.000000
22.82600021 -302.93899536 -148.86700439 5.000000
-5.32921982 -251.65299988 -144.99000549 5.000000
11.68910027 -292.62600708 -150.47200012 5.000000
-39.12540054 -218.02400208 -171.52699280 5.000000
16.57340050 -296.28698730 -153.47900391 5.000000
26.66150093 -305.16500854 -153.99000549 5.000000
4.23804998 -285.61898804 -157.45899963 5.000000
-39.86050034 -152.15600586 -186.14700317 5.000000
-34.16170120 -173.24899292 -196.86799622 5.000000
-20.43499947 -228.21499634 -203.45399475 5.000000
-2.66530991 -256.52499390 -195.49299622 5.000000
-39.65869904 -194.08599854 -187.30999756 5.000000
-30.86910057 -237.71000671 -159.99200439 5.000000
40.18529892 -298.73498535 -204.07099915 5.000000
-24.75239944 -211.19400024 -201.95300293 5.000000
-23.13010025 -239.93499756 -171.07800293 5.000000
6.73378992 -288.45599365 -148.62800598 5.000000
-168.80900574 -98.12609863 -186.42199707 5.000000
-220.02999878 -68.46459961 -171.19099426 5.000000
-119.29000092 -132.52699280 -161.47500610 5.000000
-111.12100220 -138.55799866 -148.49000549 5.000000
-130.34100342 -123.43199921 -220.84800720 5.000000
-201.21099854 -76.46630096 -187.72799683 5.000000
-215.32699585 -68.15529633 -187.96299744 5.000000
-260.20300293 -34.52949905 -163.89100647 5.000000
-194.64599609 -72.42230225 -194.27900696 5.000000
-120.33399963 -131.16700745 -167.97999573 5.000000
-114.83000183 -134.66299438 -166.97999573 5.000000
-199.32200623 -67.15170288 -195.42900085 5.000000
-258.34500122 -34.32160187 -224.45599365 5.000000
-251.85800171 -33.47349930 -222.95399475 5.000000
-177.78900146 -131.16499329 -154.61000061 5.000000
-168.66499329 -75.99590302 -217.38600159 5.000000
-183.68400574 -63.57839966 -208.92100525 5.000000
-186.41000366 -84.27500153 -179.52200317 5.000000
-162.22300720 -86.66139984 -210.46699524 5.000000
-81.32379913 -125.70099640 -209.54899597 5.000000
-215.01400757 -73.44760132 -170.74699402 5.000000
-118.34500122 -134.91700745 -140.03199768 5.000000
-238.41600037 -90.88200378 -166.64399719 5.000000
-237.16499329 -53.41199875 -179.08799744 5.000000
-135.82600403 -119.16200256 -198.99200439 5.000000
-309.83700562 8.82948017 -166.50700378 5.000000
-315.33898926 -16.17210007 -176.99699402 5.000000
-326.86700439 -8.84436989 -173.33099365 5.000000
-303.83401489 -22.65609932 -180.49699402 5.000000
-320.79098511 -11.03530025 -174.68499756 5.000000
-298.36898804 -25.82819939 -182.85600281 5.000000
-303.29998779 5.35555983 -165.03999329 5.000000
-297.61099243 3.56879997 -161.74200439 5.000000
-289.37100220 -29.76589966 -184.40600586 5.000000
-286.29299927 -35.08710098 -187.22599792 5.000000
-203.38499451 -31.53840065 -212.86799622 5.000000
-291.82000732 -2.17715001 -158.02299500 5.000000
-325.86999512 -14.25949955 -177.37600708 5.000000
-300.82299805 -0.65799898 -167.51800537 5.000000
-294.34899902 -3.68964005 -165.96699524 5.000000
-313.76400757 -23.05540085 -185.63200378 5.000000
-317.82199097 8.72453022 -163.89199829 5.000000
-194.61199951 -48.50889969 -207.21299744 5.000000
-320.88000488 -18.37450027 -180.35200500 5.000000
-307.80398560 1.88467002 -168.67599487 5.000000
-227.83599854 -36.58029938 -215.86799622 5.000000
-211.35000610 -31.52599907 -216.91000366 5.000000
-235.33999634 -33.46799850 -219.78599548 5.000000
-191.66900635 -44.73350143 -216.77600098 5.000000
-315.33898926 3.34432006 -168.00199890 5.000000
-232.34899902 -30.12470055 -224.91999817 5.000000
-295.38000488 -9.23958015 -169.86500549 5.000000
-197.57099915 -41.88420105 -208.21099854 5.000000
-288.93600464 -10.84539986 -168.27299500 5.000000
-282.99301147 -13.86680031 -153.18400574 5.000000
-308.84399414 -4.62879992 -170.73800659 5.000000
-302.82101440 -7.64835978 -171.06399536 5.000000
-289.84500122 -16.18829918 -172.47099304 5.000000
-353.35800171 -7.55772018 -171.54100037 5.000000
-315.34100342 -3.16279006 -170.04100037 5.000000
-298.85501099 -13.71150017 -173.42799377 5.000000
-290.77200317 -22.03050041 -176.73500061 5.000000
-310.85400391 -10.71619987 -173.41200256 5.000000
-284.24600220 -25.48539925 -177.26400757 5.000000
-252.80299377 -40.60940170 -168.98100281 5.000000
-356.83401489 -11.83689976 -177.35600281 5.000000
-351.35101318 -15.33829975 -183.34500122 5.000000
-349.88198853 -11.51589966 -178.12600708 5.000000
-344.34298706 -15.22570038 -183.44099426 5.000000
-347.85800171 -5.04935980 -168.59399414 5.000000
-344.34500122 -8.85914040 -175.32899475 5.000000
-282.80801392 -30.62059975 -182.01699829 5.000000
-308.34100342 -16.68280029 -176.47700500 5.000000
-280.75299072 -38.99129868 -188.21099854 5.000000
-298.86999512 -19.76079941 -176.82899475 5.000000
-202.22700500 -51.57229996 -200.81399536 5.000000
-351.34698486 -19.74020004 -188.41000366 5.000000
-362.33898926 -15.09980011 -182.51699829 5.000000
-358.84201050 -18.21739960 -187.43200684 5.000000
-345.36898804 -0.58484501 -163.57600403 5.000000
-366.33200073 -19.55809975 -188.60200500 5.000000
-340.82901001 -3.37890005 -167.69500732 5.000000
-338.36599731 1.42825997 -163.59500122 5.000000
-344.37500000 -20.31389999 -188.29699707 5.000000
-198.90400696 -77.27970123 -179.47700500 5.000000
-334.79598999 5.64322996 -159.86399841 5.000000
-331.85998535 1.92911005 -164.65899658 5.000000
-283.78601074 -20.05690002 -173.10600281 5.000000
-331.34100342 -3.59825993 -168.57200623 5.000000
-335.31698608 -8.56441975 -174.08099365 5.000000
-274.31698608 -39.14739990 -186.58700562 5.000000
-383.33300781 2.27606010 -221.51899719 5.000000
-321.83999634 -5.17866993 -170.48300171 5.000000
-333.34399414 -13.69209957 -178.46899414 5.000000
-337.87500000 -21.84399986 -188.79600525 5.000000
-377.29998779 2.14826012 -218.66600037 5.000000
-377.39700317 -12.50669956 -151.94000244 5.000000
-325.84600830 -0.15902700 -167.02400208 5.000000
-341.89401245 4.49529982 -155.94799805 5.000000
-333.82299805 -18.11359978 -185.03700256 5.000000
-367.24301147 -8.34842014 -149.19099426 5.000000
-361.76699829 -5.86354017 -152.50500488 5.000000
-355.78799438 -2.81143999 -154.48699951 5.000000
-383.30700684 -14.80210018 -150.06199646 5.000000
-326.37899780 -18.90850067 -184.30599976 5.000000
-326.34698486 7.86904001 -161.01300049 5.000000
-383.82501221 -2.20734000 -216.51800537 5.000000
-397.85501099 -15.91469955 -150.82000732 5.000000
-394.92700195 -2.42475009 -222.42999268 5.000000
-407.33898926 -13.07299995 -162.97799683 5.000000
-391.32299805 -16.33720016 -150.05799866 5.000000
-394.84600830 -6.01347017 -216.87399292 5.000000
-505.42999268 -83.66709900 -166.38999939 5.000000
-406.84201050 -14.10050011 -152.44299316 5.000000
-401.83401489 -13.61629963 -157.97200012 5.000000
-373.30599976 6.04497004 -222.32699585 5.000000
-402.85400391 -5.61818981 -222.46800232 5.000000
-501.70800781 -78.20379639 -164.13600159 5.000000
-366.74499512 3.55351996 -222.34700012 5.000000
-416.85400391 -12.28190041 -153.51100159 5.000000
-410.38101196 -9.06974030 -219.89999390 5.000000
-423.82501221 -11.10719967 -153.95500183 5.000000
-380.85198975 -12.58139992 -163.96899414 5.000000
-396.88800049 -10.47369957 -212.35699463 5.000000
-416.39599609 -9.41695976 -224.42900085 5.000000
-373.31799316 -1.27026999 -214.58200073 5.000000
-382.87200928 -12.68669987 -170.46800232 5.000000
-366.90798950 -2.47377992 -212.24899292 5.000000
-531.49401855 -98.31449890 -201.72000122 5.000000
-388.86599731 -6.60503006 -213.90600586 5.000000
-522.73199463 -90.24680328 -194.05200195 5.000000
-374.86801147 -11.96319962 -160.97399902 5.000000
-404.85800171 -10.63939953 -216.45399475 5.000000
-517.22302246 -88.22630310 -186.59700012 5.000000
-411.31500244 -13.09480000 -157.46000671 5.000000
-349.84899902 0.34055799 -154.97799683 5.000000
-370.91000366 -9.99934959 -154.48899841 5.000000
-382.41000366 -6.93931007 -211.25700378 5.000000
-527.02099609 -98.62210083 -194.83900452 5.000000
-521.01098633 -93.58740234 -187.85499573 5.000000
-510.06900024 -85.23609924 -175.12399292 5.000000
-362.72900391 0.54930001 -217.83799744 5.000000
-498.25900269 -73.18710327 -161.56599426 5.000000
-390.84399414 -12.95409966 -164.96400452 5.000000
-375.81201172 -6.79120016 -209.61399841 5.000000
-386.83898926 -13.74559975 -159.50199890 5.000000
-369.33599854 -7.19779015 -208.00199890 5.000000
-389.29098511 1.55666006 -225.14100647 5.000000
-454.67898560 -17.43849945 -219.71200562 5.000000
-400.84600830 -12.96240044 -164.95799255 5.000000
-339.85501099 -12.73929977 -178.93600464 5.000000
-380.31698608 -11.25879955 -206.57299805 5.000000
-270.28799438 -44.04869843 -189.03599548 5.000000
-515.61798096 -89.84739685 -180.08799744 5.000000
-358.44699097 0.07980000 -223.53599548 5.000000
-267.90899658 -39.36800003 -184.78199768 5.000000
-275.88101196 -33.82889938 -182.89399719 5.000000
-277.88900757 -28.78490067 -177.80299377 5.000000
-393.82699585 -14.54209995 -156.46099854 5.000000
-359.80599976 -3.06237006 -212.92799377 5.000000
-387.37500000 -10.52639961 -208.82600403 5.000000
-396.86401367 -14.56630039 -206.89799500 5.000000
-517.69799805 -99.74089813 -173.60899353 5.000000
-427.83999634 -14.68260002 -216.48399353 5.000000
-512.61297607 -94.23519897 -170.26800537 5.000000
-421.86700439 -15.55850029 -213.37699890 5.000000
-432.87298584 -14.03649998 -221.94700623 5.000000
-410.33801270 -7.69841003 -226.48100281 5.000000
-376.37200928 -13.96450043 -201.82499695 5.000000
-372.34298706 -11.14630032 -167.98399353 5.000000
-523.97698975 -111.65100098 -174.40199280 5.000000
-402.85501099 -16.98240089 -205.37699890 5.000000
-354.39700317 -6.83476019 -209.65600586 5.000000
-414.32800293 -13.11369991 -163.49400330 5.000000
-369.81100464 -13.26490021 -201.56900024 5.000000
-364.33300781 -10.35630035 -204.61700439 5.000000
-408.89300537 -14.50959969 -212.40400696 5.000000
-521.36798096 -105.16600037 -175.46299744 5.000000
-414.15899658 -17.95989990 -203.95899963 5.000000
-420.83401489 -19.20680046 -207.49400330 5.000000
-415.36300659 -13.88010025 -215.10000610 5.000000
-386.38500977 -14.98999977 -202.85000610 5.000000
-453.11898804 -32.38010025 -155.07800293 5.000000
-523.61798096 -102.28099823 -188.08999634 5.000000
-436.92001343 -17.74650002 -212.75900269 5.000000
-472.32299805 -45.22029877 -155.50999451 5.000000
-430.79400635 -18.63780022 -210.47500610 5.000000
-504.81298828 -77.18879700 -171.48899841 5.000000
-421.29199219 -11.90709972 -219.12100220 5.000000
-392.88000488 -17.01239967 -201.87199402 5.000000
-455.57800293 -32.54190063 -164.30999756 5.000000
-395.84399414 -13.63169956 -169.49499512 5.000000
-386.34399414 -19.15110016 -193.47799683 5.000000
-504.30099487 -55.27500153 -211.99000549 5.000000
-498.86401367 -54.13259888 -205.46400452 5.000000
-532.26098633 -139.66099548 -192.05200195 5.000000
-441.83599854 -15.24600029 -221.49200439 5.000000
-484.32199097 -48.21269989 -158.98100281 5.000000
-490.17498779 -50.90359879 -157.50100708 5.000000
-277.81698608 -23.63470078 -173.52499390 5.000000
-281.65200806 -14.48690033 -166.15899658 5.000000
-271.23498535 -31.99769974 -178.18699646 5.000000
-263.87200928 -44.73080063 -186.37399292 5.000000
-288.39801025 -6.24108982 -163.42900085 5.000000
-271.92599487 -26.34119987 -172.35699463 5.000000
-277.61999512 -19.40649986 -168.21600342 5.000000
-258.79998779 -49.60369873 -188.52600098 5.000000
-263.15701294 -37.96640015 -180.21200562 5.000000
-109.27799988 -154.17599487 -143.98300171 5.000000
-428.80599976 -16.38339996 -169.34199524 5.000000
-412.31900024 -23.01980019 -187.71600342 5.000000
-423.35000610 -19.11989975 -176.02400208 5.000000
-436.81900024 -14.71059990 -159.95799255 5.000000
-252.41200256 -50.79199982 -186.28999329 5.000000
-247.21299744 -55.46239853 -188.13600159 5.000000
-522.41601563 -80.10430145 -201.41499329 5.000000
-507.65399170 -71.35549927 -191.18800354 5.000000
-465.36700439 -41.12480164 -154.46000671 5.000000
-405.84100342 -21.64889908 -187.55200195 5.000000
-257.44198608 -44.35869980 -184.32600403 5.000000
-517.62902832 -78.34349823 -197.20399475 5.000000
-494.44000244 -59.13370132 -159.45399475 5.000000
-507.86300659 -89.67739868 -168.44599915 5.000000
-520.77398682 -99.19439697 -180.51899719 5.000000
-459.69299316 -37.45349884 -153.61000061 5.000000
-425.83300781 -25.75799942 -187.38000488 5.000000
-419.31900024 -24.77689934 -187.90199280 5.000000
-530.37500000 -85.16339874 -208.44999695 5.000000
-498.70401001 -63.79389954 -189.10800171 5.000000
-514.21301270 -72.29570007 -198.12399292 5.000000
-479.41500854 -47.50889969 -154.38200378 5.000000
-521.30499268 -73.69550323 -203.52600098 5.000000
-474.38198853 -43.09239960 -164.47500610 5.000000
-420.80899048 -15.90620041 -170.78900146 5.000000
-258.78201294 -37.57920074 -175.05000305 5.000000
-468.87500000 -40.10749817 -167.48899841 5.000000
-463.02801514 -37.33829880 -165.93899536 5.000000
-509.10400391 -66.90000153 -197.71899414 5.000000
-503.20098877 -64.25499725 -194.16000366 5.000000
-494.63800049 -58.40340042 -190.61300659 5.000000
-265.30700684 -33.13359833 -175.52299500 5.000000
-528.73699951 -78.19670105 -210.55000305 5.000000
-480.38299561 -46.61180115 -164.97700500 5.000000
-531.14398193 -104.22299957 -198.60299683 5.000000
-534.88800049 -105.16999817 -203.94000244 5.000000
-474.79000854 -43.77539825 -171.46699524 5.000000
-241.37100220 -54.72409821 -184.89100647 5.000000
-489.39099121 -54.60060120 -189.42599487 5.000000
-462.88598633 -38.11690140 -172.96899414 5.000000
-527.46002197 -121.67299652 -183.92799377 5.000000
-457.37899780 -34.62990189 -171.48800659 5.000000
-543.15600586 -108.67800140 -212.21099854 5.000000
-496.30200195 -56.73960114 -197.01100159 5.000000
-468.71899414 -40.85269928 -189.59599304 5.000000
-526.10302734 -71.76650238 -209.19700623 5.000000
-539.64398193 -103.69100189 -209.68299866 5.000000
-490.20800781 -54.40129852 -198.05000305 5.000000
-485.93600464 -50.53150177 -194.40600586 5.000000
-519.23699951 -67.74040222 -205.61900330 5.000000
-480.14898682 -47.52819824 -192.99000549 5.000000
-514.79199219 -64.55280304 -201.63699341 5.000000
-507.92098999 -61.06999969 -201.92500305 5.000000
-474.86499023 -43.64179993 -194.47599792 5.000000
-510.28698730 -82.21099854 -181.50599670 5.000000
-530.26202393 -121.70700073 -190.51100159 5.000000
-526.29602051 -114.19100189 -181.00100708 5.000000
-460.44799805 -35.49819946 -192.92900085 5.000000
-486.22698975 -48.88029861 -201.56199646 5.000000
-501.40600586 -72.16190338 -167.45199585 5.000000
-479.77801514 -45.82099915 -200.07000732 5.000000
-457.24301147 -33.86410141 -198.58399963 5.000000
-469.86599731 -40.13909912 -198.47200012 5.000000
-451.72799683 -31.93260002 -195.01100159 5.000000
-497.51300049 -66.62139893 -161.87699890 5.000000
-527.65802002 -93.22370148 -199.62600708 5.000000
-538.84698486 -126.68099976 -208.97599792 5.000000
-463.67999268 -36.91439819 -198.59599304 5.000000
-535.36602783 -97.16249847 -207.46000671 5.000000
-534.79602051 -122.18699646 -202.00599670 5.000000
-492.93301392 -51.54280090 -203.95100403 5.000000
-506.65100098 -76.79699707 -179.53100586 5.000000
-528.14099121 -115.71600342 -188.55299377 5.000000
-513.65802002 -61.00519943 -207.20500183 5.000000
-448.90200806 -28.55109978 -200.40499878 5.000000
-518.85900879 -84.66089630 -192.97200012 5.000000
-475.31799316 -42.22019958 -203.49200439 5.000000
-442.41900635 -25.90990067 -201.34899902 5.000000
-522.77502441 -64.75959778 -211.05799866 5.000000
-468.30300903 -37.23939896 -204.49200439 5.000000
-491.91101074 -50.51789856 -210.44999695 5.000000
-462.37500000 -34.12689972 -204.45300293 5.000000
-514.18798828 -80.27040100 -191.11399841 5.000000
-486.20999146 -47.42779922 -209.03700256 5.000000
-480.33999634 -45.18119812 -206.98199463 5.000000
-439.81298828 -21.79470062 -208.02900696 5.000000
-503.14801025 -72.30319977 -176.01499939 5.000000
-486.17001343 -45.97809982 -215.52699280 5.000000
-458.76199341 -28.78300095 -208.57099915 5.000000
-544.92999268 -126.63899994 -217.33200073 5.000000
-532.63201904 -115.70899963 -199.64500427 5.000000
-504.21798706 -72.27290344 -185.02200317 5.000000
-447.89099121 -17.00419998 -216.92599487 5.000000
-527.05700684 -86.85910034 -202.22000122 5.000000
-452.73300171 -26.87310028 -205.62899780 5.000000
-479.79098511 -42.27439880 -214.52999878 5.000000
-498.17401123 -64.77549744 -168.49800110 5.000000
-474.85299683 -37.09320068 -213.13499451 5.000000
-468.17700195 -36.49359894 -211.14500427 5.000000
-449.79901123 -22.80789948 -210.02699280 5.000000
-464.41400146 -31.08709908 -212.92799377 5.000000
-500.83099365 -67.67960358 -181.48599243 5.000000
-542.74499512 -121.65100098 -213.05599976 5.000000
-498.12500000 -64.96040344 -175.97200012 5.000000
-493.31900024 -57.70080185 -168.97700500 5.000000
-494.78799438 -61.73460007 -180.98100281 5.000000
-539.73101807 -116.64399719 -209.09700012 5.000000
-457.23098755 -24.32679939 -213.67100525 5.000000
-450.43798828 -28.15040016 -165.46099854 5.000000
-466.73999023 -30.26580048 -219.04299927 5.000000
-486.82400513 -49.71530151 -164.96400452 5.000000
-467.84698486 -40.66669846 -160.97900391 5.000000
-491.38198853 -56.62170029 -183.47500610 5.000000
-451.87701416 -31.12290001 -173.49000549 5.000000
-485.15399170 -52.40539932 -181.53399658 5.000000
-461.70700073 -23.33230019 -219.09199524 5.000000
-473.94100952 -37.00809860 -220.00100708 5.000000
-501.80499268 -58.23239899 -201.02099609 5.000000
-498.17199707 -52.40990067 -215.04800415 5.000000
-458.87500000 -37.13949966 -160.47300720 5.000000
-473.17599487 -43.40890121 -181.03599548 5.000000
-449.59698486 -27.88409996 -158.48199463 5.000000
-479.72198486 -49.28760147 -186.51499939 5.000000
-478.28298950 -48.76660156 -179.97300720 5.000000
-436.25500488 -26.31640053 -197.60499573 5.000000
-531.78002930 -91.71170044 -205.52999878 5.000000
-491.75399780 -57.79240036 -176.45899963 5.000000
-487.88101196 -53.11819839 -171.50999451 5.000000
-456.76998901 -35.28279877 -181.47799683 5.000000
-511.37100220 -57.14640045 -212.45599365 5.000000
-535.18798828 -91.27829742 -211.60499573 5.000000
-445.07901001 -22.52070045 -154.94000244 5.000000
-508.76000977 -76.76080322 -187.49099731 5.000000
-466.79800415 -40.82020187 -178.43099976 5.000000
-524.82098389 -108.18900299 -183.98800659 5.000000
-527.84997559 -107.17800140 -193.47399902 5.000000
-445.85598755 -29.13050079 -193.97999573 5.000000
-473.82699585 -44.81259918 -187.53500366 5.000000
-540.83599854 -143.17799377 -216.98599243 5.000000
-541.88598633 -164.24800110 -231.89500427 5.000000
-530.32397461 -172.07699585 -229.03100586 5.000000
-530.10699463 -129.13900757 -189.12800598 5.000000
-534.13800049 -150.14999390 -202.48199463 5.000000
-546.32800293 -142.14900208 -222.00100708 5.000000
-532.77001953 -129.70599365 -196.49099731 5.000000
-537.11798096 -137.12699890 -209.60699463 5.000000
-524.62298584 -120.13300323 -178.12100220 5.000000
-536.68902588 -146.14300537 -212.55200195 5.000000
-535.69299316 -132.18600464 -205.07000732 5.000000
-536.28601074 -165.61799622 -228.53900146 5.000000
-539.97802734 -151.79499817 -220.82800293 5.000000
-545.80700684 -148.65299988 -224.03700256 5.000000
-539.15301514 -174.47500610 -236.73899841 5.000000
-535.77099609 -152.65499878 -215.51100159 5.000000
-532.87097168 -175.71400452 -234.42999268 5.000000
-528.29602051 -179.97399902 -236.68400574 5.000000
-532.50701904 -157.80700684 -212.43800354 5.000000
-536.14599609 -112.69699860 -205.14300537 5.000000
-534.85900879 -138.67900085 -203.47500610 5.000000
-544.62402344 -136.63400269 -218.17500305 5.000000
-535.81298828 -160.66200256 -224.00399780 5.000000
-541.31298828 -133.17399597 -213.50500488 5.000000
-532.50299072 -155.75900269 -205.95300293 5.000000
-524.84100342 -175.28399658 -230.89700317 5.000000
-534.20800781 -148.61099243 -195.60000610 5.000000
-531.92999268 -161.27000427 -218.42599487 5.000000
-543.74499512 -158.11199951 -228.61300659 5.000000
-544.21997070 -115.19000244 -215.03599548 5.000000
-528.36297607 -135.67700195 -187.95399475 5.000000
-527.26098633 -164.04100037 -213.53700256 5.000000
-531.29400635 -166.62100220 -224.01800537 5.000000
-537.23999023 -181.15199280 -240.11199951 5.000000
-525.36102295 -169.21099854 -222.45500183 5.000000
-525.52600098 -128.18200684 -183.82000732 5.000000
-534.83898926 -188.17599487 -243.48800659 5.000000
-529.23999023 -184.98899841 -241.86000061 5.000000
-529.22802734 -190.90199280 -246.78799438 5.000000
-532.77398682 -196.33599854 -249.42300415 5.000000
-481.35101318 -48.16550064 -173.98199463 5.000000
-433.33599854 -23.19759941 -202.99000549 5.000000
-445.87100220 -24.14900017 -162.48300171 5.000000
-463.78799438 -39.28219986 -184.98199463 5.000000
-448.22698975 -27.74379921 -152.03999329 5.000000
-444.79699707 -26.74539948 -172.47300720 5.000000
-425.83801270 -21.72299957 -204.00599670 5.000000
-491.35598755 -50.13840103 -217.98199463 5.000000
-455.39099121 -35.02119827 -188.46499634 5.000000
-448.76501465 -33.40840149 -187.92100525 5.000000
-426.32000732 -12.34739971 -224.00599670 5.000000
-439.83801270 -29.68449974 -190.98899841 5.000000
-428.32901001 -24.73539925 -198.50599670 5.000000
-355.34600830 -10.51749992 -203.79100037 5.000000
-348.81799316 -10.58930016 -204.93200684 5.000000
-450.84600830 -32.16809845 -180.98800659 5.000000
-362.85501099 -14.44410038 -199.32699585 5.000000
-367.35198975 -10.64540005 -172.99000549 5.000000
-360.80700684 -5.78320980 -159.43699646 5.000000
-367.38400269 -9.01508999 -160.55000305 5.000000
-354.40200806 -5.01632977 -161.61399841 5.000000
-362.88000488 -9.05539989 -165.48699951 5.000000
-376.79000854 -11.95660019 -172.89799500 5.000000
-342.78698730 -11.48229980 -207.94000244 5.000000
-348.23699951 -8.47128010 -211.44400024 5.000000
-380.33898926 -17.38450050 -197.52699280 5.000000
-371.82800293 -17.90999985 -194.04299927 5.000000
-351.34600830 -14.63899994 -199.45899963 5.000000
-393.27200317 -19.94510078 -195.51600647 5.000000
-333.97698975 -15.43350029 -210.41099548 5.000000
-344.29000854 -8.11732960 -217.98599243 5.000000
-353.95498657 -4.88483000 -215.96899414 5.000000
-344.82699585 -14.29339981 -200.53500366 5.000000
-408.32400513 -15.29300022 -172.45500183 5.000000
-339.32800293 -10.65520000 -213.97700500 5.000000
-420.83300781 -12.04570007 -160.02600098 5.000000
-401.36401367 -14.88280010 -173.59800720 5.000000
-405.40100098 -20.41620064 -199.84599304 5.000000
-402.35400391 -21.08519936 -193.97900391 5.000000
-398.82901001 -19.75919914 -199.51600647 5.000000
-445.27099609 -28.89730072 -179.36999512 5.000000
-360.87298584 -8.99106979 -172.07400513 5.000000
-337.36099243 -14.73499966 -204.50300598 5.000000
-388.81600952 -14.35429955 -173.44900513 5.000000
-283.76300049 -10.58619976 -160.99299622 5.000000
-268.74099731 -27.03650093 -166.50700378 5.000000
-237.78999329 -60.10160065 -188.01100159 5.000000
-251.35899353 -45.71039963 -181.46299744 5.000000
-323.72000122 -25.95100021 -225.60699463 5.000000
-297.67700195 -33.41680145 -207.62600708 5.000000
-296.25201416 -32.48659897 -201.04899597 5.000000
-329.63000488 -24.88249969 -230.16000366 5.000000
-300.32299805 -35.13769913 -213.99000549 5.000000
-323.73599243 -22.52750015 -219.08900452 5.000000
-292.84201050 -37.21089935 -214.98100281 5.000000
-317.84399414 -25.18750000 -216.97500610 5.000000
-291.31698608 -36.09209824 -206.99899292 5.000000
-289.79901123 -34.57329941 -199.54299927 5.000000
-245.44799805 -48.55379868 -180.44700623 5.000000
-313.68701172 -25.95579910 -211.59800720 5.000000
-283.82299805 -37.63159943 -204.48300171 5.000000
-314.85101318 -29.70859909 -220.96800232 5.000000
-308.29400635 -27.57309914 -208.00900269 5.000000
-431.35000610 -10.83800030 -156.91099548 5.000000
-306.32199097 -34.58349991 -221.04400635 5.000000
-301.66101074 -36.53609848 -225.35499573 5.000000
-428.32998657 -12.77040005 -162.93200684 5.000000
-395.33300781 -16.25489998 -177.94000244 5.000000
-389.33499146 -16.77960014 -180.94200134 5.000000
-253.52099609 -41.89910126 -175.85400391 5.000000
-319.19100952 -21.45859909 -209.54699707 5.000000
-385.81698608 -18.41550064 -186.67700195 5.000000
-331.33700562 -17.67499924 -220.98399353 5.000000
-307.85800171 -30.71380043 -213.97300720 5.000000
-405.34201050 -17.62739944 -178.50100708 5.000000
-324.82800293 -29.15130043 -232.98800659 5.000000
-286.85598755 -37.49129868 -211.97000122 5.000000
-313.82901001 -23.14130020 -205.47799683 5.000000
-398.85400391 -18.55830002 -184.02400208 5.000000
-416.83300781 -17.74180031 -175.93299866 5.000000
-277.81201172 -38.55179977 -201.48300171 5.000000
-302.79901123 -29.58410072 -204.00100708 5.000000
-326.83898926 -17.17280006 -211.48500061 5.000000
-293.85800171 -31.82259941 -194.92599487 5.000000
-231.77099609 -63.00389862 -187.52000427 5.000000
-267.75500488 -40.90140152 -199.02600098 5.000000
-272.33801270 -39.16640091 -205.97999573 5.000000
-435.29998779 -18.79890060 -168.91600037 5.000000
-392.80200195 -18.93759918 -186.65199280 5.000000
-411.81900024 -19.27650070 -179.93400574 5.000000
-309.79098511 -34.57929993 -227.53300476 5.000000
-334.61999512 -20.36840057 -229.19700623 5.000000
-263.30300903 -40.99060059 -204.46200562 5.000000
-262.80200195 -32.10889816 -169.48300171 5.000000
-279.84100342 -36.17620087 -225.48300171 5.000000
-309.16400146 -26.35639954 -201.45300293 5.000000
-283.39199829 -36.29249954 -197.98899841 5.000000
-303.74700928 -27.95339966 -197.49899292 5.000000
-259.83401489 -42.65739822 -198.98100281 5.000000
-318.43499756 -29.86680031 -226.90600586 5.000000
-290.34799194 -37.01210022 -222.46699524 5.000000
-431.84100342 -21.23730087 -174.96600342 5.000000
-307.28601074 -35.42219925 -233.94700623 5.000000
-379.34600830 -20.27440071 -188.89700317 5.000000
-323.77700806 -18.49340057 -204.96299744 5.000000
-428.81600952 -23.80940056 -181.42399597 5.000000
-316.91400146 -23.34519958 -199.43600464 5.000000
-268.34899902 -36.12300110 -227.51600647 5.000000
-435.38900757 -27.54910088 -186.60899353 5.000000
-275.41198730 -39.36930084 -194.48599243 5.000000
-283.79000854 -38.16690063 -234.10699463 5.000000
-420.34500122 -21.63299942 -181.99099731 5.000000
-410.33599854 -22.59000015 -194.97399902 5.000000
-160.74800110 -98.66149902 -228.57400513 5.000000
-315.78399658 -33.49240112 -234.52600098 5.000000
-437.93301392 -23.88769913 -176.62199402 5.000000
-130.77400208 -122.62100220 -196.05299377 5.000000
-299.32699585 -36.56560135 -232.45100403 5.000000
-278.32901001 -38.59790039 -209.46600342 5.000000
-125.69599915 -126.92099762 -196.60099792 5.000000
-398.35198975 -23.76070023 -189.32299805 5.000000
-241.90400696 -50.45629883 -174.94400024 5.000000
-281.83599854 -36.79000092 -216.99699402 5.000000
-338.75299072 -15.09060001 -227.02699280 5.000000
-337.92098999 -12.35970020 -220.36999512 5.000000
-344.36199951 -10.22410011 -226.44500732 5.000000
-350.34399414 -7.18697023 -228.97999573 5.000000
-372.35400391 -16.05260086 -183.52099609 5.000000
-367.83999634 -13.68589973 -178.97900391 5.000000
-380.32598877 -16.32410049 -182.94999695 5.000000
-297.34500122 -36.20019913 -219.97900391 5.000000
-292.85800171 -37.75970078 -230.95500183 5.000000
-440.73199463 -20.41259956 -165.41900635 5.000000
-382.81600952 -14.85760021 -176.70700073 5.000000
-348.93499756 -6.33568001 -222.44999695 5.000000
-232.86700439 -57.72219849 -182.95700073 5.000000
-227.13099670 -60.86100006 -182.15400696 5.000000
-329.80300903 -17.59119987 -201.97799683 5.000000
-171.71000671 -79.91290283 -229.85000610 5.000000
-167.54800415 -84.80090332 -227.31700134 5.000000
-138.69799805 -125.47899628 -183.58999634 5.000000
-133.39100647 -129.23899841 -182.44700623 5.000000
-126.84799957 -133.18400574 -180.47500610 5.000000
-120.39900208 -139.78500366 -181.94599915 5.000000
-264.37899780 -42.83010101 -193.51300049 5.000000
-108.87999725 -149.22200012 -180.94599915 5.000000
-140.67100525 -118.07800293 -206.11300659 5.000000
-115.83300018 -144.16799927 -183.98500061 5.000000
-97.76709747 -153.59599304 -176.07400513 5.000000
-111.76599884 -143.57400513 -178.57699585 5.000000
-103.67900085 -148.50799561 -176.69299316 5.000000
-140.13499451 -124.01399994 -210.18600464 5.000000
-91.81999969 -161.15899658 -177.01199341 5.000000
-157.16200256 -104.10500336 -227.55299377 5.000000
-85.96769714 -166.26899719 -176.35600281 5.000000
-153.74299622 -109.13800049 -224.53100586 5.000000
-134.34700012 -127.19000244 -207.47700500 5.000000
-149.91900635 -111.20999908 -219.41999817 5.000000
-147.22599792 -117.16899872 -216.55999756 5.000000
-86.71700287 -171.03599548 -181.03900146 5.000000
-107.67700195 -147.14199829 -157.94200134 5.000000
-153.75700378 -119.18699646 -225.57800293 5.000000
-77.36589813 -176.20599365 -176.44900513 5.000000
-149.15899658 -121.98799896 -221.57800293 5.000000
-71.71820068 -181.56199646 -175.63099670 5.000000
-110.44499969 -138.78599548 -171.44599915 5.000000
-67.41000366 -186.74000549 -175.87399292 5.000000
-62.80789948 -191.64999390 -175.53300476 5.000000
-57.13510132 -195.53100586 -173.13400269 5.000000
-53.19150162 -201.07099915 -174.12699890 5.000000
-61.22119904 -197.57800293 -178.09300232 5.000000
-117.77999878 -132.03399658 -198.00999451 5.000000
-144.66999817 -124.00399780 -217.07400513 5.000000
-129.88099670 -127.24600220 -201.94000244 5.000000
-144.45100403 -114.71099854 -210.91200256 5.000000
-111.40399933 -134.83999634 -199.48899841 5.000000
-124.36799622 -130.23800659 -204.47500610 5.000000
-50.04029846 -206.81100464 -175.25999451 5.000000
-65.06520081 -195.90499878 -183.46699524 5.000000
-57.90439987 -203.24600220 -179.93699646 5.000000
-21.77930069 -225.16400146 -209.99400330 5.000000
-16.72480011 -251.09399414 -174.62600708 5.000000
-109.66000366 -147.67199707 -142.49299622 5.000000
-113.34600067 -135.68800354 -160.48199463 5.000000
-7.47972012 -260.22100830 -167.43400574 5.000000
-110.31199646 -139.65199280 -155.98899841 5.000000
-17.18889999 -249.50300598 -161.00900269 5.000000
-8.84193039 -254.67900085 -157.97999573 5.000000
-148.71600342 -108.94799805 -212.99899292 5.000000
-128.32600403 -127.16400146 -178.00100708 5.000000
-156.66200256 -100.00499725 -220.52499390 5.000000
-153.75000000 -103.59400177 -213.00100708 5.000000
-164.57699585 -91.95629883 -228.61799622 5.000000
-142.18400574 -111.50700378 -198.52499390 5.000000
-145.53700256 -109.95500183 -206.40800476 5.000000
-108.37500000 -162.18499756 -145.48599243 5.000000
-143.64999390 -120.92900085 -182.62100220 5.000000
-116.84400177 -132.68899536 -204.98300171 5.000000
-161.31300354 -92.07800293 -222.44299316 5.000000
-154.90199280 -103.58799744 -203.97500610 5.000000
-153.83200073 -113.66400146 -182.98699951 5.000000
-149.63099670 -105.92500305 -200.51300049 5.000000
-64.27899933 -193.11199951 -141.52400208 5.000000
-146.80400085 -115.13300323 -180.05700684 5.000000
-254.84700012 -44.70059967 -194.98399353 5.000000
-48.77119827 -214.63000488 -179.53199768 5.000000
-43.97420120 -214.26300049 -174.85000610 5.000000
-59.00690079 -203.22000122 -157.05000305 5.000000
-40.27140045 -223.13299561 -177.06100464 5.000000
-28.70199966 -237.06799316 -176.16299438 5.000000
-24.12369919 -212.61799622 -211.20700073 5.000000
-38.92259979 -230.28399658 -184.48199463 5.000000
-35.59550095 -231.97999573 -178.66499329 5.000000
-24.82150078 -243.66600037 -176.50500488 5.000000
-34.40909958 -237.27699280 -184.47700500 5.000000
-30.37529945 -242.69999695 -182.47500610 5.000000
-19.96509933 -229.80099487 -197.00000000 5.000000
-13.25389957 -253.09700012 -165.47300720 5.000000
-17.37050056 -235.74899292 -195.49400330 5.000000
-22.36429977 -249.69200134 -177.95100403 5.000000
-24.71470070 -251.58099365 -183.99800110 5.000000
-21.98670006 -234.13499451 -209.90400696 5.000000
-20.35779953 -239.18099976 -203.97399902 5.000000
-19.85790062 -255.69299316 -179.46499634 5.000000
-17.92770004 -242.13600159 -197.93899536 5.000000
-21.07760048 -246.73599243 -203.89300537 5.000000
-24.76580048 -240.68800354 -212.01400757 5.000000
-7.85297012 -264.68798828 -174.46899414 5.000000
-16.95660019 -248.73699951 -198.94999695 5.000000
-20.18980026 -259.02600098 -185.47300720 5.000000
-23.21150017 -218.15699768 -204.99200439 5.000000
-9.83518028 -252.51899719 -199.48899841 5.000000
-0.51401502 -257.43798828 -209.95100403 5.000000
0.35968599 -260.53399658 -203.44999695 5.000000
-11.68789959 -272.97698975 -186.98800659 5.000000
-24.15410042 -248.60299683 -210.10400391 5.000000
-11.29269981 -251.55999756 -193.03500366 5.000000
-22.85569954 -244.70300293 -159.47799683 5.000000
-3.20468998 -254.94500732 -203.46099854 5.000000
2.36464000 -265.60000610 -199.49600220 5.000000
22.54470062 -274.56298828 -217.33200073 5.000000
-16.21949959 -247.12199402 -192.57400513 5.000000
6.83217001 -272.59298706 -203.46800232 5.000000
-20.82799911 -245.66799927 -152.99099731 5.000000
-4.18874979 -267.12500000 -169.55099487 5.000000
-3.82965994 -267.67700195 -162.97999573 5.000000
-17.85440063 -252.82899475 -207.45599365 5.000000
-3.62370992 -265.70999146 -152.42599487 5.000000
-15.54559994 -249.80999756 -153.86300659 5.000000
17.48360062 -300.84600830 -160.68299866 5.000000
19.33559990 -308.33999634 -166.80700684 5.000000
25.82239914 -309.56600952 -165.18400574 5.000000
12.85050011 -299.06698608 -165.08999634 5.000000
22.19210052 -305.61898804 -160.51899719 5.000000
-7.35012007 -265.14199829 -185.71400452 5.000000
26.76589966 -283.05200195 -210.33299255 5.000000
18.22279930 -283.11499023 -206.33200073 5.000000
-36.32199860 -167.16600037 -193.46299744 5.000000
23.12229919 -290.68099976 -205.53900146 5.000000
20.11520004 -277.78100586 -210.15899658 5.000000
15.28369999 -270.02700806 -213.26400757 5.000000
-2.76744008 -273.15600586 -155.48599243 5.000000
-115.82299805 -131.09199524 -211.45500183 5.000000
-208.82699585 -72.15699768 -187.47200012 5.000000
-183.42300415 -59.25730133 -214.01400757 5.000000
-158.22999573 -95.43190002 -205.96099854 5.000000
-156.88699341 -98.28350067 -195.98500061 5.000000
-177.75999451 -65.12359619 -216.93299866 5.000000
-188.27299500 -53.57609940 -211.96099854 5.000000
-182.27099609 -58.13399887 -220.96000671 5.000000
-237.83500671 -53.66360092 -191.46800232 5.000000
-191.71600342 -83.46849823 -186.23199463 5.000000
-263.99398804 -36.34920120 -215.62899780 5.000000
-127.82299805 -128.00900269 -214.90800476 5.000000
-248.80900574 -47.60269928 -193.44400024 5.000000
-272.84698486 -36.70029831 -215.98699951 5.000000
-223.85800171 -64.65489960 -186.51600647 5.000000
-137.84199524 -124.14099884 -219.96800232 5.000000
-176.09300232 -91.91419983 -180.48300171 5.000000
-160.06399536 -92.92939758 -215.42199707 5.000000
-516.89099121 -62.56999969 -213.45199585 5.000000
-481.83099365 -44.19499969 -221.48199463 5.000000
-538.77197266 -100.20700073 -215.50700378 5.000000
-420.35400391 -23.62199974 -198.96499634 5.000000
-512.01599121 -102.07900238 -170.70799255 5.000000
-440.14498901 -16.39380074 -154.52200317 5.000000
-431.31201172 -26.85070038 -193.01600647 5.000000
-448.83898926 -16.77709961 -223.48800659 5.000000
-355.84100342 -18.13269997 -193.45899963 5.000000
-344.31698608 -18.56970024 -194.96000671 5.000000
-163.92799377 -86.22519684 -220.45399475 5.000000
-172.91700745 -72.71309662 -225.96099854 5.000000
-212.80999756 -69.62169647 -181.98899841 5.000000
-199.14199829 -83.54799652 -186.15199280 5.000000
-311.26300049 -26.50090027 -194.99099731 5.000000
-304.41400146 -31.87260056 -190.92199707 5.000000
-204.85499573 -74.34049988 -181.39399719 5.000000
-356.19198608 -3.52308011 -228.63299561 5.000000
-531.10998535 -201.62699890 -253.61399841 5.000000
-344.35699463 -15.15799999 -230.94900513 5.000000
-174.84399414 -100.20800018 -184.49400330 5.000000
-176.65400696 -66.45330048 -225.01800537 5.000000
-529.25000000 -209.21699524 -260.47198486 5.000000
-186.81300354 -91.13289642 -182.99699402 5.000000
-3.18720007 -261.23300171 -143.93699646 5.000000
-3.59368992 -257.64498901 -149.52799988 5.000000
-19.89349937 -231.20899963 -190.47500610 5.000000
-53.22069931 -152.22500610 -183.75399780 5.000000
-10.84290028 -253.09500122 -207.98899841 5.000000
-5.85698986 -253.76499939 -212.48199463 5.000000
-16.78619957 -240.67399597 -190.99899292 5.000000
-9.32293987 -252.14999390 -150.98800659 5.000000
-138.74899292 -124.06800079 -203.58999634 5.000000
-291.91598511 -28.33209991 -178.35200500 5.000000
-261.35699463 -37.38560104 -229.76100159 5.000000
-304.38299561 -28.78280067 -183.81199646 5.000000
-330.27099609 -24.08309937 -222.53999329 5.000000
-305.32699585 -14.14780045 -170.52699280 5.000000
-277.31799316 -39.09749985 -231.09399414 5.000000
-273.33999634 -35.72240067 -222.48599243 5.000000
-316.40600586 -10.83339977 -169.75000000 5.000000
-312.33300781 -22.15239906 -177.49899292 5.000000
-253.32000732 -36.25590134 -228.83900452 5.000000
-320.46899414 2.06241012 -163.89599609 5.000000
-413.91198730 -16.93810081 -169.20100403 5.000000
-429.84799194 -11.73610020 -150.48100281 5.000000
-330.35900879 7.38085985 -155.03100586 5.000000
-286.34201050 -36.98939896 -228.00900269 5.000000
-436.79299927 -11.32699966 -150.31199646 5.000000
-543.20501709 -146.10600281 -211.58099365 5.000000
57.59930038 -10.05230045 -154.77299500 6.000000
75.98509979 12.54010010 -161.76899719 6.000000
80.71320343 9.25018024 -154.02499390 6.000000
46.02809906 -31.10490036 -146.78799438 6.000000
129.09899902 65.85350037 -111.45200348 6.000000
50.13520050 -34.65919876 -142.93200684 6.000000
136.60499573 71.84259796 -106.42199707 6.000000
