52.73585892 -21.29722023 55.71218109 3.000000
52.86505127 -20.95146751 55.03256607 3.000000
54.29745483 -20.63165283 55.37326050 3.000000
55.44100189 -20.14531708 55.46234894 3.000000
56.42770004 -19.87350082 55.77220154 3.000000
55.76474380 -19.41230011 54.98812866 3.000000
56.61307907 -19.20790863 55.54425049 3.000000
55.99021912 -17.67682076 54.97217941 3.000000
56.63042068 -17.81909943 55.52104187 3.000000
55.73365021 -16.48600006 55.00785065 3.000000
56.55503464 -16.52009964 55.70613480 3.000000
54.63759995 -14.71929932 54.86029816 3.000000
55.49697113 -15.27742195 55.32436371 3.000000
56.38180161 -15.73750019 55.85419846 3.000000
53.56809998 -13.55949974 54.70420074 3.000000
54.32076263 -13.81576347 55.25396347 3.000000
55.11529922 -14.09829998 55.75465012 3.000000
53.22124481 -12.60389996 55.09146500 3.000000
53.94091415 -12.80272865 55.66374207 3.000000
52.61285019 -11.89545059 54.85929871 3.000000
105.10449982 -49.25500107 57.15509796 3.000000
104.03099823 -48.10350037 57.20439911 3.000000
102.67099762 -46.29817581 56.96329880 3.000000
103.28050232 -46.83979797 57.21884918 3.000000
101.48699951 -44.64720154 56.80110168 3.000000
102.05950165 -45.14477539 57.05932617 3.000000
100.34300232 -43.75659943 56.41090012 3.000000
101.23850250 -43.93691635 56.85665131 3.000000
100.62699890 -42.93439865 57.06209946 3.000000
50.14739990 -22.64368629 56.53122711 3.000000
50.79444885 -22.21175003 56.21215057 3.000000
51.67217255 -22.00344276 56.59661484 3.000000
52.83931351 -21.75267029 56.74831390 3.000000
54.23458099 -21.43531799 56.66117477 3.000000
55.51306534 -21.35370064 57.02793121 3.000000
56.27890015 -21.12969971 57.04479980 3.000000
54.28300095 -21.07850075 56.03129959 3.000000
55.47137070 -20.85244179 56.34362793 3.000000
56.81665802 -20.47616577 56.62101746 3.000000
58.09104156 -20.11318016 57.03073883 3.000000
57.26504898 -19.38122559 56.13182449 3.000000
58.11843872 -19.19692993 56.72526169 3.000000
57.29339981 -17.64697456 56.09424973 3.000000
58.10968781 -17.79896355 56.71060181 3.000000
57.26887512 -16.53330040 56.25415039 3.000000
58.13320160 -16.51658821 56.87692642 3.000000
56.82979202 -15.18687725 56.42026901 3.000000
57.91899872 -15.51733303 56.99969864 3.000000
54.74430084 -13.34090042 56.03079987 3.000000
55.66656494 -13.86194992 56.34223938 3.000000
56.70096207 -14.08366203 56.85016251 3.000000
54.48331451 -12.53254986 56.27413177 3.000000
55.45628738 -12.86651134 56.72582245 3.000000
56.45267487 -13.01430035 57.14099884 3.000000
54.38700104 -11.73989964 56.34479904 3.000000
54.97539902 -11.69849968 56.71279907 3.000000
107.53171539 -51.33372879 57.96758652 3.000000
108.35099792 -51.49480057 58.38054657 3.000000
106.40627289 -50.27971649 57.89566422 3.000000
107.31379700 -50.58068085 58.34075928 3.000000
105.15150452 -48.94278336 57.69158173 3.000000
106.09055328 -49.06068802 58.27161026 3.000000
104.02919769 -47.47135925 57.63282013 3.000000
104.82392883 -47.88023376 58.03839111 3.000000
105.78900146 -48.30049896 58.46120071 3.000000
102.84700012 -46.25350189 57.40810013 3.000000
103.65135956 -46.39960098 57.88043594 3.000000
104.39199829 -46.71889877 58.36959839 3.000000
102.59445190 -45.05265427 57.75916290 3.000000
103.33516693 -45.58929825 58.17008209 3.000000
101.45659637 -43.53623962 57.64828110 3.000000
102.06999969 -44.03693390 58.16668701 3.000000
100.09974670 -42.49005127 57.37194824 3.000000
101.07533264 -42.68842316 58.05684280 3.000000
100.31733704 -41.61033249 57.92713165 3.000000
100.70800018 -41.87310028 58.47069931 3.000000
98.63288116 -39.81752014 58.29101944 3.000000
99.11150360 -39.93569946 58.45529938 3.000000
98.77326965 -39.12165070 57.89762497 3.000000
99.38919830 -38.76039886 57.50899887 3.000000
97.52490234 -36.11080170 58.48229980 3.000000
95.15760040 -33.40190125 58.43249893 3.000000
95.52584839 -33.81075287 58.43140030 3.000000
50.72827911 -22.87435913 57.92710114 3.000000
51.54592896 -22.63585663 57.91519928 3.000000
52.75022888 -22.64252853 58.17794418 3.000000
54.23146057 -22.58748055 58.40779877 3.000000
51.83940125 -22.31320000 57.39970016 3.000000
52.99648285 -22.19205093 57.58611679 3.000000
54.37651825 -22.05673981 57.72729874 3.000000
55.60803223 -21.94255638 57.86226654 3.000000
56.82759857 -21.72299385 57.96659470 3.000000
58.06791687 -21.49001694 58.20368195 3.000000
59.08049774 -21.27389908 58.41999817 3.000000
57.38840103 -20.87709999 57.30250168 3.000000
58.35749817 -20.69897461 57.62876129 3.000000
59.43056870 -20.47638893 58.00440979 3.000000
60.31140137 -20.49720001 58.45999908 3.000000
59.35279846 -19.22599030 57.61640167 3.000000
60.44542313 -19.26527786 58.33804321 3.000000
59.38187408 -17.76638412 57.58789063 3.000000
60.48435593 -17.76679993 58.27650070 3.000000
59.33570099 -16.55397224 57.62807083 3.000000
60.56072617 -16.51955032 58.32865143 3.000000
58.55410004 -15.02855015 57.47774887 3.000000
59.40935898 -15.20967960 57.85691833 3.000000
60.52584457 -15.34294319 58.38750076 3.000000
57.37530136 -13.74240017 57.29489899 3.000000
58.12689972 -13.97465992 57.52418137 3.000000
59.47763824 -14.01867485 57.98989868 3.000000
60.58842468 -14.02079964 58.39697647 3.000000
55.78630066 -12.33030033 57.54359818 3.000000
56.98826599 -12.60798359 57.44906616 3.000000
58.08327484 -13.02904987 57.63850021 3.000000
59.26757431 -12.83252525 57.84617615 3.000000
60.73134613 -12.77082253 58.33075333 3.000000
56.51505280 -11.84799957 57.66394806 3.000000
57.77410126 -11.82069969 58.06449890 3.000000
108.99456787 -51.38348770 58.87384415 3.000000
110.02666473 -51.67584610 59.33816528 3.000000
110.89550018 -51.93070221 59.44100189 3.000000
107.66487885 -50.04375076 58.95076370 3.000000
108.73380280 -50.45888901 59.36566925 3.000000
109.68800354 -50.93949890 59.62810135 3.000000
106.61512756 -48.86493683 58.95123672 3.000000
107.39933777 -49.30474472 59.34722137 3.000000
108.39700317 -49.68069839 59.84170151 3.000000
105.32371521 -47.34888458 59.07797241 3.000000
106.02127075 -47.93609238 59.27284622 3.000000
104.16699982 -45.88940048 58.84519958 3.000000
104.75933075 -46.51612091 59.23822403 3.000000
103.56745148 -45.11980057 59.01183701 3.000000
104.35700226 -45.74110031 59.41600037 3.000000
102.51773071 -43.74375534 59.12841034 3.000000
103.28399658 -44.07555008 59.43930054 3.000000
101.49600220 -42.09349823 59.34994888 3.000000
101.93971252 -42.65950012 59.27264404 3.000000
100.11450195 -40.73740005 58.90399933 3.000000
101.03099823 -41.27381134 59.33702850 3.000000
99.79941559 -39.79282761 59.40352631 3.000000
100.55100250 -40.58499908 59.48400116 3.000000
98.78351593 -38.42292023 59.13125992 3.000000
99.86996460 -38.89039993 59.45586777 3.000000
97.72485352 -36.86045074 59.15419769 3.000000
98.11704254 -37.47283936 59.31499863 3.000000
97.12052917 -35.97388840 59.31565094 3.000000
96.05470276 -34.41320038 59.30419922 3.000000
96.63919830 -35.05635834 59.12754059 3.000000
94.85585022 -33.00014877 59.18477631 3.000000
95.43060303 -33.65094757 59.17923355 3.000000
93.82630157 -31.77039909 59.42610168 3.000000
94.30740356 -32.43892670 59.30707550 3.000000
93.12393188 -30.79523277 59.34156799 3.000000
92.68679810 -29.86630058 59.40370178 3.000000
54.87839890 -25.31529999 59.76110077 3.000000
52.99354935 -24.00613403 59.52650070 3.000000
54.43272018 -24.20586014 59.62741852 3.000000
55.53993225 -24.00683403 59.76893234 3.000000
51.64436722 -23.16510010 58.65903473 3.000000
52.82569885 -23.28585625 58.90205383 3.000000
54.34360123 -23.17638969 59.01092148 3.000000
55.56386948 -23.06554985 59.13473129 3.000000
56.76150894 -22.98727989 59.34893417 3.000000
58.07799911 -22.75263405 59.44291687 3.000000
59.23310089 -22.67258072 59.71525955 3.000000
57.35079956 -22.35169983 58.84249878 3.000000
58.30526733 -22.03656578 58.82981873 3.000000
59.46601868 -21.81189156 59.06285477 3.000000
60.75545883 -21.65054131 59.44652557 3.000000
62.06349945 -21.25480080 59.70655060 3.000000
60.91563416 -20.53713226 58.82801819 3.000000
62.03616333 -20.53642464 59.44297409 3.000000
61.15639877 -19.27751732 58.79541779 3.000000
62.11200714 -19.26804161 59.39602661 3.000000
62.87470245 -19.02379990 59.84780121 3.000000
61.21796036 -17.86919975 58.74671936 3.000000
61.95503998 -17.72114944 59.17903900 3.000000
62.81888580 -17.76754951 59.69286728 3.000000
61.18149948 -16.77219963 58.68280029 3.000000
61.88138580 -16.51893806 59.08002472 3.000000
62.85392380 -16.51862526 59.63007355 3.000000
61.37279892 -15.26879978 58.83480072 3.000000
61.91767120 -15.31978035 59.10004807 3.000000
62.94103241 -15.27276611 59.62846756 3.000000
61.25989914 -13.74559975 58.60699844 3.000000
61.95025635 -14.00322819 58.95538712 3.000000
63.26356125 -13.80297470 59.48392487 3.000000
61.96047592 -13.02250004 58.77672577 3.000000
63.89889908 -13.30560017 59.77270126 3.000000
110.87350464 -51.18699646 60.08345032 3.000000
109.22149658 -49.98977661 60.14372253 3.000000
110.15499878 -50.31127167 60.49982834 3.000000
110.98349762 -50.88380051 60.53969955 3.000000
107.71179962 -48.73783875 60.32695007 3.000000
108.74300385 -49.27516174 60.64144516 3.000000
109.65699768 -49.51399994 61.04669952 3.000000
106.35433197 -47.59027863 60.39250946 3.000000
107.23342896 -48.09381485 60.72570038 3.000000
105.01418304 -46.31000900 60.48448944 3.000000
105.81333160 -46.95126724 60.75809860 3.000000
103.89459991 -44.95972061 60.33179092 3.000000
104.45475006 -45.51445007 60.53929901 3.000000
102.70500183 -43.47609711 60.58320236 3.000000
103.25274658 -44.10653687 60.43512726 3.000000
101.48049927 -42.12414932 60.72914886 3.000000
102.10490417 -42.69548035 60.42926788 3.000000
100.30999756 -40.78340149 60.66930008 3.000000
100.89463806 -41.38411713 60.48133469 3.000000
99.79187012 -40.01234818 60.51127625 3.000000
98.67791748 -38.52407074 60.50580978 3.000000
99.31900024 -39.02759933 60.16979980 3.000000
97.52188110 -36.98419952 60.57768250 3.000000
98.01658630 -37.64472961 60.41818619 3.000000
96.45639801 -35.68550110 60.97909927 3.000000
96.93675232 -36.16201019 60.39199066 3.000000
95.97178650 -34.69698334 60.46046448 3.000000
94.87952423 -33.19787598 60.42219925 3.000000
95.37449646 -33.82564926 60.28982544 3.000000
93.74394989 -31.74074936 60.56717682 3.000000
94.22419739 -32.39804459 60.44570923 3.000000
93.15747070 -30.86372948 60.38457108 3.000000
92.22739410 -29.54213715 60.46912766 3.000000
92.65380096 -29.89249992 59.88919830 3.000000
91.03427887 -27.87657928 60.42095947 3.000000
91.55519867 -28.61654282 60.57255554 3.000000
56.90259933 -26.56040001 60.73380280 3.000000
57.75534821 -27.00609970 61.06534958 3.000000
90.46569824 -26.78566742 60.91433334 3.000000
55.59954834 -25.61845016 60.28423309 3.000000
56.82867813 -25.76921082 60.70405579 3.000000
57.82902527 -25.76639938 61.05872345 3.000000
90.04380035 -26.15719986 61.04570007 3.000000
53.81909943 -24.72780037 59.99649811 3.000000
55.63579941 -24.57419968 60.01343536 3.000000
56.84379959 -24.33243752 60.29182816 3.000000
58.16072083 -24.31786728 60.70807648 3.000000
59.26024246 -23.99972916 60.83745575 3.000000
60.29204941 -23.92345047 61.05445099 3.000000
57.28829956 -23.66839981 60.07350159 3.000000
58.07992554 -23.40537453 60.04724884 3.000000
59.41766739 -23.26262283 60.28004456 3.000000
60.81969833 -23.13015366 60.57010651 3.000000
62.03707123 -22.97372818 60.86854172 3.000000
63.00353241 -22.78136635 61.06409836 3.000000
61.05435181 -22.22389984 59.99084854 3.000000
61.91995239 -22.10984993 60.24000168 3.000000
63.29931641 -21.76617622 60.56193924 3.000000
64.42669678 -21.62062454 60.99069977 3.000000
63.30956268 -20.51583672 60.20859909 3.000000
64.56683350 -20.43373299 60.94654846 3.000000
63.43951035 -19.26865578 60.20392227 3.000000
64.64070129 -19.27292252 60.92090225 3.000000
63.59151077 -17.76752281 60.17266464 3.000000
64.63091278 -17.72230911 60.81527328 3.000000
63.64416504 -16.51758385 60.11973572 3.000000
64.70453644 -16.51842499 60.79767609 3.000000
63.68145752 -15.40691471 60.07507324 3.000000
64.75588226 -15.30830002 60.69637299 3.000000
65.40194702 -15.03940010 61.05630112 3.000000
63.83119965 -14.27009964 59.91999817 3.000000
64.61284637 -14.03802490 60.23979950 3.000000
65.85293579 -13.87224960 60.87596893 3.000000
64.34130096 -13.27810001 59.89530182 3.000000
110.43550110 -49.85385132 61.29570007 3.000000
110.86799622 -50.21189880 61.38309860 3.000000
108.93791962 -48.75236511 61.84515762 3.000000
109.96779633 -49.44955826 61.67076111 3.000000
106.68633270 -47.23159790 61.57766724 3.000000
107.46299744 -47.78303146 61.94847107 3.000000
108.29350281 -48.31494904 62.18399811 3.000000
105.28299713 -46.05876541 61.92446518 3.000000
106.07745361 -46.69381714 61.97751617 3.000000
103.90325165 -44.78303909 61.86997604 3.000000
104.64433289 -45.44857788 61.92102051 3.000000
102.51599884 -43.58345413 61.92764282 3.000000
103.25599670 -44.20715714 62.00392914 3.000000
101.27788544 -42.31308746 61.92662048 3.000000
101.89050293 -42.96134949 61.93288422 3.000000
100.01172638 -41.02007294 61.98989868 3.000000
100.62271118 -41.61572647 61.86167145 3.000000
98.72286224 -39.57468033 62.02157974 3.000000
99.39042664 -40.20012665 61.78077316 3.000000
97.56367493 -38.28150177 62.16469955 3.000000
98.25867462 -38.77866745 61.70113373 3.000000
96.29509735 -36.79280090 62.39530182 3.000000
97.19991302 -37.43393707 61.80610657 3.000000
96.01953125 -35.90265656 61.95923233 3.000000
96.67647552 -36.53720093 61.65859985 3.000000
94.95291901 -34.51504135 62.15678024 3.000000
95.54006195 -34.98104858 61.77007294 3.000000
93.73739624 -32.82460022 62.34899902 3.000000
94.54015350 -33.48996353 61.79850769 3.000000
93.46636963 -32.02656937 61.91794968 3.000000
94.07077026 -32.64807510 61.56790161 3.000000
92.37137604 -30.60803986 62.19654083 3.000000
92.91159821 -31.04920006 61.72367477 3.000000
91.86615753 -29.64604187 61.88500214 3.000000
59.51785278 -27.75914955 62.02655029 3.000000
90.80014801 -27.97537804 61.94126892 3.000000
91.48699951 -28.77623367 61.59123230 3.000000
58.52614975 -27.01399994 61.52265167 3.000000
59.59175110 -26.96546173 62.08537292 3.000000
89.73954773 -26.56814957 62.37395096 3.000000
90.33857727 -27.00042152 61.75777817 3.000000
58.47714996 -25.90927505 61.37385178 3.000000
59.35423279 -25.74506760 61.78630066 3.000000
60.62701416 -25.49970055 62.24884415 3.000000
89.35293579 -25.63147545 62.06931305 3.000000
59.53271484 -24.68136597 61.38808441 3.000000
60.87508011 -24.41424561 61.59961700 3.000000
62.01876450 -24.38066292 61.89479828 3.000000
63.28874969 -24.19466019 62.08676910 3.000000
64.52666473 -24.00609970 62.30810165 3.000000
65.33170319 -23.77519989 62.41370010 3.000000
88.97260284 -24.69610023 62.03020096 3.000000
62.38339996 -23.38159943 61.24700165 3.000000
63.36106110 -23.18405914 61.42950058 3.000000
64.51238251 -23.20774269 61.81067276 3.000000
65.76419830 -23.08135033 62.11603546 3.000000
66.87090302 -22.78879929 62.32469940 3.000000
64.77752686 -21.93137550 61.25320053 3.000000
65.80001068 -21.77795792 61.68577576 3.000000
67.11212158 -21.76871681 62.35863495 3.000000
65.82194519 -20.55282784 61.65031433 3.000000
67.04483032 -20.60160065 62.33493423 3.000000
65.16069794 -18.75790024 61.20259857 3.000000
65.84887695 -19.27013397 61.64048386 3.000000
66.83091736 -19.17029953 62.21834183 3.000000
65.17690277 -18.25449944 61.17670059 3.000000
65.87381744 -17.77280045 61.60095978 3.000000
66.80183411 -17.77031708 62.21538544 3.000000
65.87355804 -16.55725670 61.56987381 3.000000
66.80447388 -16.51552582 62.21262360 3.000000
66.09095764 -15.32289028 61.55429840 3.000000
67.04417419 -15.34188747 62.19246292 3.000000
66.24606323 -14.15583324 61.27040100 3.000000
67.00253296 -14.27709961 61.73836517 3.000000
67.89890289 -14.29699993 62.31909943 3.000000
109.01000214 -48.59579849 63.09423447 3.000000
109.63099670 -49.00260162 62.48479843 3.000000
106.62449646 -47.20795059 63.46409988 3.000000
107.48200226 -47.71587753 63.17897797 3.000000
108.45866394 -48.31726456 63.08883286 3.000000
105.27639771 -46.01697922 63.27312088 3.000000
106.00410461 -46.65501022 63.31737900 3.000000
103.80699921 -44.77975082 63.22784805 3.000000
104.62242889 -45.47502899 63.23464203 3.000000
102.42137146 -43.67768860 63.23362350 3.000000
103.18199921 -44.24786758 63.09690094 3.000000
101.08200073 -42.51139832 63.18801117 3.000000
101.91300201 -43.17660141 62.95220184 3.000000
98.92900085 -40.65790176 63.47809982 3.000000
99.75199890 -41.25217056 63.09392548 3.000000
97.68509674 -39.40629959 63.32120132 3.000000
98.44753265 -39.94615173 63.00629807 3.000000
99.09750366 -40.48590088 62.79539871 3.000000
96.21879578 -38.12924957 63.55274963 3.000000
97.06413269 -38.62997437 63.15303040 3.000000
97.90644836 -39.19605255 62.73365021 3.000000
95.06710052 -37.04050064 63.67210007 3.000000
95.88623047 -37.36599350 63.21516037 3.000000
96.69084930 -37.65850067 62.66382599 3.000000
94.68016052 -36.09952545 63.39963913 3.000000
95.51640320 -36.25334930 62.77953339 3.000000
93.53150177 -34.63330078 63.52823257 3.000000
94.37406158 -34.86049271 62.96795273 3.000000
92.35540009 -33.00395203 63.71610260 3.000000
93.26319885 -33.55191040 63.24613190 3.000000
93.96579742 -33.43965149 62.55265045 3.000000
92.15740204 -32.02995682 63.48024368 3.000000
92.98497772 -32.38376617 62.90671158 3.000000
91.19229889 -30.84309959 63.74769974 3.000000
91.86080170 -30.88488197 63.13891983 3.000000
90.87739563 -29.59088707 63.35226440 3.000000
91.58968353 -29.92710114 62.76546097 3.000000
60.72613907 -28.06575966 62.83374023 3.000000
61.80915070 -28.14940071 63.50275040 3.000000
89.76235962 -27.94658089 63.44543839 3.000000
90.43664551 -28.45883369 63.02027893 3.000000
60.73337936 -26.94456673 62.78006744 3.000000
61.95077515 -26.93403816 63.42172623 3.000000
63.37730026 -26.37549973 63.76610184 3.000000
89.44839478 -26.93337250 63.07809067 3.000000
61.13536453 -25.88766670 62.66956711 3.000000
62.01345444 -25.69403648 62.86208344 3.000000
63.26977539 -25.65193939 63.21866989 3.000000
64.53790283 -25.46498489 63.37590027 3.000000
65.83405304 -25.36276627 63.57048416 3.000000
67.02424622 -25.10850143 63.66120148 3.000000
88.38346863 -25.57268333 63.39020157 3.000000
88.97431946 -25.89970016 62.88203430 3.000000
63.58872223 -24.80439949 62.62777710 3.000000
64.63385773 -24.57579994 62.70685959 3.000000
65.88474274 -24.42653275 62.95279312 3.000000
67.29224396 -24.42701912 63.34146500 3.000000
68.44419861 -23.98473930 63.37820053 3.000000
69.52413177 -23.79870033 63.65990067 3.000000
87.20429993 -23.82749939 63.77239990 3.000000
88.00644684 -24.30707932 63.16980743 3.000000
88.90709686 -24.72769928 62.48789978 3.000000
67.42842102 -23.26763916 62.72686005 3.000000
68.45101929 -23.03158379 63.07638550 3.000000
69.57712555 -23.01057434 63.55625153 3.000000
87.21320343 -23.31299973 63.77299881 3.000000
87.45580292 -23.23889923 63.58720016 3.000000
68.39824677 -21.71562958 63.03752899 3.000000
69.32815552 -21.64082527 63.55469894 3.000000
67.47979736 -20.27795029 62.58474731 3.000000
68.36548615 -20.51217461 63.11402512 3.000000
69.28092957 -20.61326599 63.66823196 3.000000
67.56086731 -19.26982307 62.68654251 3.000000
68.61670685 -19.27080727 63.39190674 3.000000
67.52510071 -17.76825523 62.71361160 3.000000
68.51435089 -17.81782722 63.43830109 3.000000
67.52703094 -16.52213287 62.70896530 3.000000
68.55758667 -16.51533699 63.45447540 3.000000
67.75444794 -15.36797523 62.66619873 3.000000
68.49906921 -15.28213310 63.15096664 3.000000
69.42700195 -14.82779980 63.26660156 3.000000
68.31819916 -14.26964951 62.67589951 3.000000
107.33899689 -48.50325012 64.68840027 3.000000
108.18699646 -48.44580078 63.83240128 3.000000
105.14440155 -47.45687866 64.84439850 3.000000
106.32799530 -47.69644547 64.39659119 3.000000
107.40383148 -48.19255066 64.16886902 3.000000
104.01059723 -46.08528137 64.69422150 3.000000
104.85923004 -46.43069839 64.34123993 3.000000
105.70950317 -46.88269806 64.05850220 3.000000
102.65139771 -44.84141922 64.74736023 3.000000
103.57707214 -45.26784515 64.32675171 3.000000
104.41400146 -45.66989899 64.01039886 3.000000
101.34457397 -43.54441452 64.66528320 3.000000
102.19625092 -44.02596664 64.29721832 3.000000
103.15599823 -44.47890091 63.81969833 3.000000
100.04319763 -42.27270126 64.58724213 3.000000
100.84690857 -42.75242615 64.23192596 3.000000
98.63548279 -41.00549316 64.63690948 3.000000
99.46737671 -41.57012558 64.33045197 3.000000
97.31661224 -39.78458405 64.47884369 3.000000
98.16017914 -40.33174133 64.14794159 3.000000
94.99089813 -38.08560181 65.04519653 3.000000
95.92752075 -38.52475739 64.45342255 3.000000
96.74042511 -39.10192490 64.20024872 3.000000
93.74469757 -36.85290146 64.85639954 3.000000
94.54369354 -37.27535248 64.47951508 3.000000
95.43666077 -37.75716019 64.02462006 3.000000
92.40689850 -35.69079971 65.01010132 3.000000
93.23770142 -36.04832458 64.56623077 3.000000
94.11167908 -36.48173904 64.10733795 3.000000
90.91889954 -34.19639969 65.05799866 3.000000
91.91983795 -34.64305496 64.64077759 3.000000
92.95768738 -34.92218781 64.05104065 3.000000
90.64230347 -33.44786453 64.89189911 3.000000
91.84925842 -33.50718689 64.20861053 3.000000
89.72722626 -32.13005066 64.97212219 3.000000
90.70116425 -32.18214035 64.47113037 3.000000
91.60269928 -32.25632477 63.96562576 3.000000
89.45860291 -30.75941086 64.79276276 3.000000
90.63140869 -30.81613922 64.12959290 3.000000
62.30580139 -29.25654984 64.21859741 3.000000
63.79010010 -29.24169922 65.01709747 3.000000
88.37490082 -29.24290085 65.01100159 3.000000
89.33218384 -29.56596947 64.53151703 3.000000
90.18603516 -29.58956718 63.96620178 3.000000
62.34980011 -28.27956772 63.88349915 3.000000
63.34178925 -28.18647194 64.48980713 3.000000
64.48349762 -27.92140007 64.95590210 3.000000
88.06507874 -28.03873444 64.78072357 3.000000
89.13435364 -28.36526299 64.22344971 3.000000
63.41405869 -26.99364281 64.10829926 3.000000
64.52725220 -26.86832428 64.43906403 3.000000
65.72653198 -26.76984024 64.67758179 3.000000
67.34131622 -26.57418442 64.85676575 3.000000
68.34400177 -26.33279991 64.83950043 3.000000
87.18357849 -26.77917480 64.89804840 3.000000
88.05780029 -26.99769974 64.41696167 3.000000
88.78895569 -27.04069901 63.88114929 3.000000
63.84389877 -26.30590057 63.87089920 3.000000
64.65996552 -26.10403252 63.92553329 3.000000
65.89831543 -25.97970009 64.07132721 3.000000
67.32553864 -25.75589180 64.18942261 3.000000
68.60800934 -25.65678978 64.42018890 3.000000
69.73688507 -25.70068359 64.67487335 3.000000
71.03903961 -25.48944092 64.77453613 3.000000
72.22640228 -25.46058083 64.94032288 3.000000
73.30590057 -25.25469971 65.01480103 3.000000
86.84358215 -25.59388924 64.72969818 3.000000
87.84303284 -25.87211037 64.11587524 3.000000
68.59034729 -24.79895020 63.87245178 3.000000
69.95086670 -24.45962143 64.03810883 3.000000
71.06680298 -24.20704269 64.27585602 3.000000
72.29354858 -24.32408905 64.67140198 3.000000
73.30903625 -24.27339935 64.98136902 3.000000
85.73297119 -24.12899971 64.98037720 3.000000
86.69962311 -24.31247520 64.37635803 3.000000
87.38619995 -24.73810005 63.99150085 3.000000
70.33609772 -23.01829910 63.90695190 3.000000
71.14891815 -23.02151680 64.28500366 3.000000
72.41914368 -23.07192039 64.84815979 3.000000
85.69461060 -23.12268448 64.73091125 3.000000
86.41378021 -23.07732010 64.10897827 3.000000
70.16273499 -21.70038795 64.01057434 3.000000
71.20664978 -21.70364952 64.60540771 3.000000
72.00353241 -22.09763336 64.90906525 3.000000
85.23826599 -21.77156639 64.83173370 3.000000
86.21824646 -22.30839920 64.00669861 3.000000
69.97699738 -20.48361397 64.13212585 3.000000
70.98439789 -20.52391624 64.77803040 3.000000
84.84310150 -20.76709938 64.95610046 3.000000
69.88835144 -19.23617172 64.29954529 3.000000
70.73157501 -19.38627434 64.88154602 3.000000
68.93630219 -17.26609993 63.77780151 3.000000
69.81333923 -17.77304649 64.44364166 3.000000
69.80177307 -16.51889038 64.44088745 3.000000
69.80975342 -15.54045582 64.35444641 3.000000
105.66500092 -48.43349838 65.25289917 3.000000
102.69700623 -47.17929840 66.09080505 3.000000
103.79100037 -47.42039871 65.71156311 3.000000
104.51399994 -47.80640030 65.34580231 3.000000
106.01300049 -48.10169983 65.08850098 3.000000
100.27100372 -45.81460190 66.29920197 3.000000
101.10900116 -46.31200027 66.30599976 3.000000
102.42666626 -46.38552094 65.79403687 3.000000
103.54824829 -46.54848862 65.30303955 3.000000
100.11456299 -44.96816635 66.15893555 3.000000
101.15657043 -45.08079910 65.78508759 3.000000
102.18236542 -45.27611923 65.35339355 3.000000
98.76940155 -43.30009842 66.34059906 3.000000
99.79573822 -43.84233093 65.91485596 3.000000
100.91544342 -43.95974350 65.33512115 3.000000
98.64177704 -42.39224243 66.01531219 3.000000
99.57050323 -42.56957245 65.39134216 3.000000
100.47399902 -43.12580109 65.09480286 3.000000
97.47239685 -41.01813889 66.07532501 3.000000
98.23178864 -41.36808014 65.60662842 3.000000
96.09178162 -39.57908630 65.90843964 3.000000
97.05300903 -40.30105972 65.70995331 3.000000
94.60382080 -38.29552078 65.90641785 3.000000
95.49365234 -38.85181427 65.59342957 3.000000
93.33114624 -37.23058319 65.89268494 3.000000
94.25266266 -37.83364105 65.65413666 3.000000
91.15205383 -35.68799973 66.25695038 3.000000
91.98327637 -36.01255035 65.82923889 3.000000
92.80054474 -36.40200043 65.41017914 3.000000
89.76954651 -34.33484650 66.08775330 3.000000
90.70648193 -34.81480789 65.75862885 3.000000
91.57613373 -35.18106842 65.32186890 3.000000
88.02134705 -33.08425140 66.31860352 3.000000
89.33345795 -33.49950027 65.78081512 3.000000
90.33689880 -33.88355255 65.30644989 3.000000
87.11837006 -31.98746681 66.16313171 3.000000
88.12374878 -32.13545227 65.76428223 3.000000
89.07170105 -32.25424194 65.33984375 3.000000
65.35990143 -30.29929924 66.35679626 3.000000
85.40345001 -30.45561600 66.23508453 3.000000
86.74850464 -30.84653854 65.94071198 3.000000
87.98889923 -30.68899918 65.47180176 3.000000
88.73429871 -31.06315041 65.21095276 3.000000
63.28879929 -29.14920044 65.17939758 3.000000
64.62645721 -29.49185753 65.48074341 3.000000
65.62034607 -29.55304909 66.09353638 3.000000
83.06990051 -29.28229904 66.34704590 3.000000
84.06085205 -29.54217529 66.28132629 3.000000
85.34628296 -29.51278305 66.09574890 3.000000
86.84298706 -29.51173401 65.69950104 3.000000
87.99369812 -29.49547577 65.24537659 3.000000
64.83589935 -28.41397095 65.27040100 3.000000
65.92044830 -28.31443405 65.70169830 3.000000
67.24121094 -28.13311768 66.05542755 3.000000
68.58442688 -27.80612564 66.13334656 3.000000
69.70570374 -27.78845024 66.27909851 3.000000
75.07550049 -27.80955124 66.35879517 3.000000
76.32213593 -27.82449913 66.32086945 3.000000
77.56790161 -27.84054947 66.26490021 3.000000
78.94564819 -27.95477486 66.25767517 3.000000
80.33074951 -28.04425049 66.28458405 3.000000
81.62606049 -28.17745972 66.31124115 3.000000
82.82062531 -28.27678871 66.28655243 3.000000
84.10913086 -28.20057106 66.18296814 3.000000
85.33443451 -28.26604462 65.96413422 3.000000
86.76276398 -28.27796364 65.50019073 3.000000
87.68650055 -28.45569992 65.12339783 3.000000
66.17200470 -27.31166649 65.20860291 3.000000
67.38608551 -27.22241211 65.41871643 3.000000
68.57673645 -27.01096344 65.43601227 3.000000
69.86441040 -26.99948502 65.61219025 3.000000
71.08326721 -26.94212914 65.73097992 3.000000
72.29303741 -26.99343872 65.83789825 3.000000
73.77908325 -27.10812950 65.95893860 3.000000
75.07621765 -27.15176582 66.00316620 3.000000
76.23120117 -26.95151901 65.94140625 3.000000
77.57600403 -27.00517464 65.98222351 3.000000
78.81953430 -27.05676651 66.10013580 3.000000
80.33626556 -27.01519966 66.22669983 3.000000
81.57852173 -27.01760101 66.29434967 3.000000
82.81805420 -27.02040100 66.26208496 3.000000
84.11992645 -27.00074959 66.11972046 3.000000
85.40000916 -26.95076370 65.75007629 3.000000
86.52670288 -27.04610062 65.31564331 3.000000
71.04890442 -26.12065125 65.15249634 3.000000
72.44631958 -26.05179977 65.27027893 3.000000
73.90566254 -25.85102463 65.34571075 3.000000
75.06849670 -25.75474930 65.49448395 3.000000
76.41104126 -25.62497139 65.71479797 3.000000
77.57783508 -25.77143288 65.92506409 3.000000
78.82551575 -25.76247025 66.12696075 3.000000
80.33606720 -25.76002312 66.30570221 3.000000
81.57579803 -25.76598358 66.33232117 3.000000
82.87299347 -25.71736908 66.22320557 3.000000
84.26158905 -25.70758820 65.92545319 3.000000
85.46398926 -25.70046616 65.47660065 3.000000
86.23554993 -26.06695175 65.22260284 3.000000
74.07651520 -24.32372856 65.24980164 3.000000
75.11031342 -24.26452827 65.57402802 3.000000
76.33019257 -24.26871109 65.91534424 3.000000
77.58587646 -24.31400108 66.18453979 3.000000
78.74246216 -24.54532051 66.30734253 3.000000
79.83059692 -24.76239967 66.37560272 3.000000
81.81819916 -24.26756668 66.34249878 3.000000
82.83142090 -24.21298981 66.14637756 3.000000
84.08614349 -24.20895767 65.77220154 3.000000
85.14704132 -24.35794258 65.34403992 3.000000
72.93800354 -22.69219971 65.17549896 3.000000
73.74131775 -23.05873871 65.39452362 3.000000
75.00807190 -23.01544189 65.88146973 3.000000
76.22090149 -23.11347580 66.21687317 3.000000
81.81004333 -23.01865005 66.34065247 3.000000
82.81787109 -23.01788330 66.04354858 3.000000
84.31596375 -23.02468300 65.47823334 3.000000
72.59368896 -21.51917076 65.39350128 3.000000
73.79953766 -21.70759964 65.88529205 3.000000
74.93462372 -22.03409958 66.21687317 3.000000
81.80573273 -21.76596642 66.34756470 3.000000
82.82769775 -21.76914406 65.97113037 3.000000
84.13202667 -21.89586258 65.46295166 3.000000
84.90859985 -22.24699974 65.07740021 3.000000
71.34945679 -20.01149940 65.14514923 3.000000
72.37268829 -20.38455582 65.66101837 3.000000
73.50444794 -20.59734917 66.19035339 3.000000
82.69438171 -20.56951904 65.94655609 3.000000
84.02305603 -20.78445053 65.32334900 3.000000
71.35328674 -19.12494278 65.40172577 3.000000
72.21996307 -19.29767036 65.96536255 3.000000
82.26059723 -19.75489998 66.23519897 3.000000
71.13757324 -17.74457169 65.55484009 3.000000
71.91590118 -17.86872482 66.19664764 3.000000
71.08999634 -16.52700996 65.66825104 3.000000
70.93499756 -15.65884972 65.57747650 3.000000
101.85299683 -47.25310135 66.45659637 3.000000
99.82135010 -46.26224899 66.68475342 3.000000
100.68599701 -46.41233063 66.47513580 3.000000
98.52014160 -45.03391266 67.07141876 3.000000
99.50059509 -45.34923553 66.60063171 3.000000
97.64643097 -43.77366638 67.42906952 3.000000
98.33613586 -43.84904099 66.84965515 3.000000
97.42055511 -42.53882980 67.29589844 3.000000
98.03517151 -42.59102631 66.64170074 3.000000
96.27584839 -40.83079910 67.35015106 3.000000
97.02265930 -41.36685181 66.91944122 3.000000
97.80850220 -41.78319931 66.40579987 3.000000
94.81355286 -39.53720093 67.41275024 3.000000
95.78112793 -40.02859879 66.96183014 3.000000
96.55270386 -40.53800201 66.65570068 3.000000
93.44103241 -38.33842087 67.20137024 3.000000
94.38756561 -38.80760574 66.88099670 3.000000
95.33100128 -39.26539993 66.42769623 3.000000
91.05139923 -36.80725098 67.38214874 3.000000
92.06044006 -37.21530914 67.07027435 3.000000
92.96768188 -37.63201523 66.77288818 3.000000
89.57853699 -35.80007935 67.41872406 3.000000
90.66228485 -36.07640076 66.97631073 3.000000
91.58486938 -36.48786545 66.70369720 3.000000
87.11105347 -34.21725082 67.50704956 3.000000
88.05946350 -34.58202362 67.32567596 3.000000
89.26187134 -34.83491516 66.85808563 3.000000
90.35220337 -35.23949814 66.45819855 3.000000
84.74040222 -32.92900085 67.63069916 3.000000
85.65633392 -33.10910034 67.41266632 3.000000
86.72950745 -33.49803162 67.21070099 3.000000
87.83518219 -33.54790115 66.72327423 3.000000
82.84473419 -31.72719955 67.49873352 3.000000
84.10492706 -32.14167023 67.39262390 3.000000
85.33483124 -32.21690750 67.03511047 3.000000
86.67034912 -32.42594910 66.60856628 3.000000
66.12390137 -30.32199860 66.81725311 3.000000
67.09995270 -30.54055023 67.38500214 3.000000
78.82752228 -30.37019920 67.51721954 3.000000
80.39411163 -30.64625740 67.38782501 3.000000
81.53353119 -30.86835670 67.29761505 3.000000
82.77223969 -30.78750992 66.99682617 3.000000
84.10507202 -30.78732872 66.68430328 3.000000
85.20950317 -31.20077896 66.56807709 3.000000
66.21147156 -29.77652359 66.52864838 3.000000
67.32757568 -29.60433388 67.00527954 3.000000
68.54018402 -29.35470009 67.36861420 3.000000
69.69467163 -29.09437561 67.47512817 3.000000
71.06845093 -29.05924988 67.63305664 3.000000
72.34416962 -29.06956673 67.63262939 3.000000
73.95974731 -29.10827446 67.46315002 3.000000
75.06771851 -29.26251602 67.41400146 3.000000
76.33776855 -29.40201187 67.30575562 3.000000
77.59040070 -29.66892624 67.29926300 3.000000
78.86965179 -29.51143646 66.99388123 3.000000
80.33285522 -29.66532707 66.86218262 3.000000
81.56752777 -29.55154991 66.62577820 3.000000
82.62477875 -29.68082047 66.51714325 3.000000
67.65613556 -28.76373291 66.60513306 3.000000
68.56948090 -28.50779915 66.69496918 3.000000
69.86808014 -28.45634460 66.92323303 3.000000
71.07491302 -28.29967117 66.89659882 3.000000
72.33197784 -28.30492592 66.89388275 3.000000
73.79586029 -28.31385612 66.81201172 3.000000
75.08056641 -28.42433357 66.77125549 3.000000
76.26319885 -28.47798729 66.70345306 3.000000
77.52732086 -28.56917953 66.62982178 3.000000
78.73387909 -28.53786087 66.49458313 3.000000
80.33049774 -28.75616646 66.45950317 3.000000
81.32659912 -28.77379990 66.40129852 3.000000
78.95204926 -23.89850044 66.45162964 3.000000
80.39181519 -24.20901299 66.44946289 3.000000
81.32646942 -24.26740074 66.39830017 3.000000
76.57679749 -22.77149963 66.43614960 3.000000
77.56357574 -23.04662514 66.52545166 3.000000
78.82049561 -23.00876617 66.64251709 3.000000
80.34273529 -23.03310013 66.57283020 3.000000
81.33059692 -23.01880074 66.43820190 3.000000
75.19715118 -21.39767456 66.56577301 3.000000
76.27784729 -21.76958084 66.73193359 3.000000
77.54432678 -21.68582916 66.97208405 3.000000
78.77748871 -21.71332932 66.96177673 3.000000
80.32530975 -21.75675583 66.73525238 3.000000
81.34413147 -21.77190018 66.47946930 3.000000
74.05995178 -20.53509903 66.46690369 3.000000
74.98341370 -20.46221352 66.88761902 3.000000
76.31895447 -20.42465782 67.31461334 3.000000
77.57857513 -20.51519966 67.41637421 3.000000
78.82675934 -20.45098686 67.36162567 3.000000
80.32614899 -20.51480103 67.00254822 3.000000
81.50531769 -20.51466751 66.61398315 3.000000
72.85593414 -18.92286682 66.55413055 3.000000
73.76996613 -19.23277283 66.94982147 3.000000
74.90875244 -19.35675049 67.43483734 3.000000
75.80819702 -19.80550003 67.50019836 3.000000
79.32986450 -19.42060089 67.55843353 3.000000
80.21093750 -19.55509949 67.26395416 3.000000
81.66693115 -19.76373482 66.76303101 3.000000
72.54154205 -17.77633286 66.72158813 3.000000
73.56713104 -17.87164307 67.36599731 3.000000
72.39450073 -16.51715088 66.85453033 3.000000
73.39089966 -16.74970055 67.32319641 3.000000
97.28816986 -43.61601639 68.14278412 3.000000
96.40329742 -42.21369934 68.96099854 3.000000
96.79565430 -42.49824142 68.40422821 3.000000
94.82260132 -40.77870178 68.91729736 3.000000
95.89166260 -41.20911026 68.40310669 3.000000
96.60250092 -41.74444962 67.93420410 3.000000
92.05525208 -39.57835007 68.82099915 3.000000
93.32041168 -39.78638458 68.61515808 3.000000
94.55704498 -40.01531982 68.19149017 3.000000
95.46683502 -40.45949936 67.90483093 3.000000
84.32099915 -38.26879883 68.45149994 3.000000
85.34339905 -38.40069962 68.82135010 3.000000
86.32720184 -38.26219940 68.97319794 3.000000
88.33409882 -38.25579834 68.96880341 3.000000
89.53356171 -38.36141968 68.83492279 3.000000
90.76044464 -38.69491577 68.70785522 3.000000
91.89003754 -38.69564438 68.37734222 3.000000
93.10137177 -38.92941284 68.04147339 3.000000
81.84680176 -36.73350143 68.18879700 3.000000
83.00531769 -37.09099960 68.36478424 3.000000
84.06024933 -37.28176498 68.57192993 3.000000
85.33804321 -37.28086472 68.78433228 3.000000
86.76039886 -37.34563828 68.85167694 3.000000
88.03511047 -37.21907043 68.70043945 3.000000
89.37225342 -37.30897522 68.44895172 3.000000
90.69284058 -37.42115021 68.05142212 3.000000
91.78553009 -37.83296585 67.85390472 3.000000
80.66106415 -35.93980026 68.49636841 3.000000
81.58004761 -36.01282501 68.39375305 3.000000
82.82126617 -36.02313232 68.50396729 3.000000
84.08437347 -36.02522278 68.69484711 3.000000
85.40705872 -35.98544312 68.69042969 3.000000
86.90523529 -36.11747360 68.55398560 3.000000
88.09333801 -36.02190018 68.21572113 3.000000
89.15712738 -36.23708725 67.92893219 3.000000
76.81980133 -34.27519989 68.86419678 3.000000
77.61978149 -34.57899857 68.72444153 3.000000
78.83317566 -34.76609802 68.47031403 3.000000
80.32902527 -34.76945496 68.52658844 3.000000
81.57914734 -34.76478195 68.55823517 3.000000
82.88149261 -34.80736923 68.58027649 3.000000
84.08280182 -34.74760056 68.53500366 3.000000
85.33219147 -34.71121979 68.34291077 3.000000
86.75827026 -34.90333939 68.05252838 3.000000
87.93956757 -35.18743515 67.79010010 3.000000
76.65363312 -33.44336700 68.85890198 3.000000
77.56212616 -33.53229904 68.72402954 3.000000
78.83670044 -33.50113297 68.63406372 3.000000
80.33792114 -33.49991608 68.55484772 3.000000
81.57191467 -33.28468323 68.38819885 3.000000
82.75309753 -33.42464447 68.30454254 3.000000
84.09053040 -33.46221542 68.08370209 3.000000
85.20574188 -33.60770035 67.85633850 3.000000
86.43370056 -34.09920120 67.70179749 3.000000
75.16113281 -31.93700027 68.92046356 3.000000
76.32796478 -32.26096725 68.75516510 3.000000
77.54435730 -32.25847244 68.57422638 3.000000
78.87747955 -32.21923065 68.38359833 3.000000
80.37341309 -32.27951813 68.18773651 3.000000
81.57334900 -32.03364944 67.89414978 3.000000
82.74803162 -32.43068695 67.88782501 3.000000
67.57350159 -30.51089859 67.93579865 3.000000
68.37689972 -30.35513306 67.97460175 3.000000
69.67606354 -30.49193382 68.78516388 3.000000
71.07839966 -30.26129913 68.93315125 3.000000
72.31189728 -30.33383369 68.84666443 3.000000
73.93497467 -30.67212296 68.68280792 3.000000
75.05938721 -30.87458801 68.52847290 3.000000
76.32010651 -30.74709129 68.20436859 3.000000
77.56168365 -30.81911659 67.99231720 3.000000
78.74417114 -31.08699989 67.92689514 3.000000
80.30332947 -31.34103394 67.77513123 3.000000
68.66849518 -29.95546722 67.90603638 3.000000
69.87707520 -29.72704506 68.14764404 3.000000
71.07667542 -29.65703773 68.28372192 3.000000
72.33912659 -29.69890785 68.25019836 3.000000
73.70767975 -29.71094513 68.03150177 3.000000
74.94960022 -30.00658035 68.02404022 3.000000
76.32080078 -29.97466660 67.71593475 3.000000
75.20653534 -18.86776733 67.77893066 3.000000
76.39530945 -19.12617874 67.97939301 3.000000
77.57078552 -19.26263237 67.97406769 3.000000
78.44670105 -19.24180031 67.85067749 3.000000
74.21450043 -17.88326645 67.80806732 3.000000
75.08789825 -18.12895012 68.15332794 3.000000
76.14540100 -18.29816628 68.18823242 3.000000
73.91529846 -17.19420052 67.72470093 3.000000
96.09730530 -42.25900269 69.43875122 3.000000
92.34049988 -40.72869873 69.48880005 3.000000
93.23529816 -40.95363998 69.44345856 3.000000
94.41673279 -41.01229858 69.34397888 3.000000
95.63212585 -41.53582764 69.37113953 3.000000
88.33589935 -39.68439865 69.60749817 3.000000
89.45848846 -39.79905701 69.42362976 3.000000
90.57887268 -40.03704834 69.38065338 3.000000
91.84626007 -40.21634293 69.28394318 3.000000
93.05927277 -40.32447433 69.09719849 3.000000
93.90399933 -40.58349991 69.11689758 3.000000
85.82530212 -38.76160049 68.97910309 3.000000
86.96558380 -38.77577209 69.13648224 3.000000
88.07743073 -38.85639954 69.25261688 3.000000
89.12953949 -38.96372223 69.14804077 3.000000
90.34780121 -39.22800064 69.01370239 3.000000
76.33799744 -34.25970078 68.98940277 3.000000
74.92253876 -33.07762146 69.31848145 3.000000
76.01126862 -33.58486557 69.01319885 3.000000
72.54163361 -32.02931595 69.95608521 3.000000
73.86331177 -32.18573761 69.49549103 3.000000
74.96897125 -32.49649811 69.13864899 3.000000
70.17066956 -30.80679893 69.20010376 3.000000
71.13101959 -30.72224045 69.37545776 3.000000
72.28740692 -30.98277283 69.39012146 3.000000
73.61786652 -31.32856750 69.14186859 3.000000
31.89077187 -16.48878479 16.42740059 4.000000
32.03760147 -15.77939987 16.92029953 4.000000
31.68207550 -16.53927612 17.67582512 4.000000
32.19398117 -15.70302010 17.70664024 4.000000
33.21640015 -15.01309967 18.12719917 4.000000
31.66320038 -16.56238365 18.92853355 4.000000
32.04356766 -15.44069958 18.99266624 4.000000
33.06202698 -15.00349998 18.81455040 4.000000
31.82096672 -15.37590027 20.17938423 4.000000
33.47537613 -14.84302521 20.16692543 4.000000
34.82618713 -15.48387814 20.25079918 4.000000
31.38479996 -15.09166622 21.76053238 4.000000
31.64748764 -15.42809963 21.23486137 4.000000
33.69343185 -14.70499992 21.07846642 4.000000
34.71851730 -15.13150787 21.43597412 4.000000
31.32909966 -14.26850033 21.92560005 4.000000
32.24980164 -14.37849998 21.19795036 4.000000
33.40818024 -14.42074013 21.83884048 4.000000
31.46050072 -16.23660088 23.42539978 4.000000
35.71814728 -16.20039940 22.82555008 4.000000
31.37274361 -15.26097775 22.92642212 4.000000
34.99218750 -14.92586613 22.81399918 4.000000
35.54314041 -15.63175964 23.01608086 4.000000
31.29380035 -14.27110004 23.42580032 4.000000
32.25363159 -14.00353336 22.77803421 4.000000
33.34304428 -14.07217789 22.91760063 4.000000
34.29940033 -14.46224976 22.94750023 4.000000
31.43589973 -16.22990036 24.17634964 4.000000
35.88024902 -16.25569916 24.17085075 4.000000
31.35313416 -15.26461601 24.17570114 4.000000
35.29959869 -14.79090023 23.93370056 4.000000
35.62189865 -15.34850025 24.07697105 4.000000
31.32620049 -14.10176659 24.25933266 4.000000
32.52894974 -13.43894958 23.96879959 4.000000
33.37757492 -13.68799973 24.12337494 4.000000
34.70961380 -14.25746250 24.10930061 4.000000
32.33470154 -13.24419975 24.42110062 4.000000
31.44359970 -16.23093224 25.43309975 4.000000
35.92287445 -16.37949944 25.41792488 4.000000
31.25398827 -15.27763367 25.41782188 4.000000
35.69632721 -15.17969990 25.38327217 4.000000
31.20825958 -14.06830025 25.51206017 4.000000
31.63999939 -13.73359966 24.91589928 4.000000
33.73403931 -13.49022007 25.12890053 4.000000
34.77482224 -13.83104610 25.43441582 4.000000
35.41799927 -14.20740032 25.89749908 4.000000
31.32469940 -12.27709961 25.92790031 4.000000
31.99699974 -13.03821278 25.62182426 4.000000
33.18590164 -13.13129997 25.63934326 4.000000
31.41855049 -16.21579933 26.67694855 4.000000
31.91780090 -16.80928612 26.71571541 4.000000
35.05400085 -16.51910019 27.34020042 4.000000
35.96465302 -16.26079941 26.64794922 4.000000
31.16258430 -15.29351616 26.66901779 4.000000
35.93132782 -15.32844257 26.76085663 4.000000
31.16189957 -13.92403316 26.68650055 4.000000
31.56259918 -13.32689953 26.44759941 4.000000
35.03917694 -13.55539989 26.56582451 4.000000
35.55541611 -14.04451656 26.81949997 4.000000
31.21025085 -12.63039970 26.95630074 4.000000
31.98731422 -12.62578583 26.80442810 4.000000
33.39136124 -12.83769989 26.73880005 4.000000
34.55055237 -13.11338329 26.98545074 4.000000
33.28911209 -17.39436722 27.93644524 4.000000
34.59090042 -17.41925049 27.45050049 4.000000
31.40063286 -16.20506668 27.91993332 4.000000
32.02920914 -16.79707527 27.92544937 4.000000
34.94778824 -16.67730904 28.07103920 4.000000
35.74440002 -16.09474945 27.89894867 4.000000
31.06838036 -15.29825974 27.98166084 4.000000
36.08306885 -15.26904011 27.96924019 4.000000
30.96446609 -14.01908302 27.94083405 4.000000
35.23759842 -13.34729958 27.45719910 4.000000
35.80088806 -13.87657547 27.97928810 4.000000
31.19837761 -13.09759998 27.93121147 4.000000
32.16469955 -12.50471973 27.63143921 4.000000
33.39598846 -12.38178730 27.98346329 4.000000
34.76311874 -12.81375980 28.03816032 4.000000
35.45389938 -13.16549969 28.37899971 4.000000
31.28826714 -11.53009987 28.12339973 4.000000
31.98155975 -11.86281967 28.06088066 4.000000
33.29613113 -17.33813286 29.43126678 4.000000
31.44350052 -16.16500092 28.91440010 4.000000
32.09849930 -16.64163971 29.42548561 4.000000
33.32713318 -16.86793327 29.39511681 4.000000
34.76348114 -16.20845032 29.36416054 4.000000
31.03963852 -15.33295345 29.39074516 4.000000
36.09188080 -15.36161041 29.38196945 4.000000
30.75321579 -14.02385044 29.41816711 4.000000
36.20875931 -13.82048035 29.42933083 4.000000
30.87124252 -12.97904301 29.35149956 4.000000
33.85609818 -12.17450047 28.89450073 4.000000
34.88596725 -12.38236713 29.31374550 4.000000
35.72161102 -12.93892479 29.45634842 4.000000
31.33373260 -11.27913284 29.42580032 4.000000
32.13174438 -11.38191414 29.41345787 4.000000
33.30795670 -11.84035683 29.44588661 4.000000
34.28279877 -11.93649960 29.97050095 4.000000
33.70949936 -17.57244873 30.91514969 4.000000
32.13029861 -16.53994560 30.70342636 4.000000
33.42654419 -16.69522858 30.70054245 4.000000
30.99311256 -15.31377506 30.67325020 4.000000
30.65330124 -14.03557491 30.67889977 4.000000
36.54573441 -13.96479988 30.63183403 4.000000
30.59550095 -13.26144981 30.67779922 4.000000
35.01300049 -12.11306667 30.25896645 4.000000
35.97692108 -12.72837734 30.70691109 4.000000
31.07366562 -11.09516621 30.27013397 4.000000
32.27276993 -11.03439999 30.61384201 4.000000
33.37350082 -11.40768528 30.66542816 4.000000
34.61933517 -11.76140022 30.78364944 4.000000
31.25609970 -10.51749992 31.00970078 4.000000
33.90679932 -17.63769913 31.42679977 4.000000
34.34099960 -17.74580002 31.42510033 4.000000
32.19010162 -16.44874954 31.96240044 4.000000
33.48712540 -16.37738800 31.85343742 4.000000
31.00353050 -15.24909973 31.92875290 4.000000
30.47638702 -14.08736229 31.93422508 4.000000
30.35502052 -13.06272030 32.03139877 4.000000
32.53874969 -10.85899925 31.45999908 4.000000
33.54629898 -10.98007107 31.85512924 4.000000
34.80169296 -11.42155838 31.93557549 4.000000
35.63313293 -11.78390026 32.26850128 4.000000
31.09442902 -10.19521904 31.94971466 4.000000
32.02182388 -10.45193768 31.92196274 4.000000
33.10784912 -10.66905022 32.38594818 4.000000
31.98275757 -16.25295830 33.14047241 4.000000
33.33536530 -16.10586548 32.91860199 4.000000
31.07040024 -15.26876259 33.17528915 4.000000
33.33196640 -15.77993393 33.42406845 4.000000
30.44981575 -14.13801670 33.17878342 4.000000
30.10944939 -12.50810051 33.42275238 4.000000
30.22433281 -13.12036705 33.07956696 4.000000
34.90311432 -10.95376682 33.10189819 4.000000
35.87891388 -11.56464291 33.21337128 4.000000
31.33539963 -9.75391960 32.91989899 4.000000
32.06954956 -9.91791248 33.31110001 4.000000
33.25965118 -10.31455040 33.24538422 4.000000
34.23949814 -10.49149990 33.52220154 4.000000
30.75790024 -9.40464020 32.97809982 4.000000
31.78980064 -16.04879951 33.92444992 4.000000
31.03607559 -15.15705013 34.34199142 4.000000
32.10718155 -15.56676006 34.52048111 4.000000
33.33639908 -15.59829044 34.46572876 4.000000
30.12284851 -13.33115005 34.42150116 4.000000
30.40374947 -14.15347481 34.48659897 4.000000
30.00604248 -12.59765720 34.43595886 4.000000
29.79555511 -11.27225494 34.42553329 4.000000
32.10846710 -9.57689953 34.15299988 4.000000
33.31428909 -9.78857040 34.50331116 4.000000
31.13800049 -8.99271297 34.61560059 4.000000
32.08219910 -9.26020050 34.92154694 4.000000
31.83580017 -16.49613380 36.29489899 4.000000
31.00278473 -15.01138592 35.71571350 4.000000
32.17228699 -15.01404285 35.79328537 4.000000
33.37960052 -15.37357521 35.86989975 4.000000
34.73360062 -15.42644405 35.82775497 4.000000
30.09946632 -13.35033321 35.92700195 4.000000
30.44075584 -14.13408852 35.92844391 4.000000
29.92671585 -12.50168324 35.92589951 4.000000
29.81196594 -11.27628899 35.92248917 4.000000
29.87059975 -10.02347469 35.91928482 4.000000
30.89539909 -9.80049038 35.45130157 4.000000
33.83499908 -9.52828503 35.41690063 4.000000
34.77713394 -9.69594669 35.68395233 4.000000
29.93790054 -9.27503967 36.40810013 4.000000
31.08581924 -8.87148952 35.92353821 4.000000
32.15046692 -8.90921211 35.82098007 4.000000
33.19572830 -9.15457153 35.91175842 4.000000
30.96899986 -14.78380013 37.09276581 4.000000
32.37923431 -14.72226715 36.92476654 4.000000
33.43428040 -15.12926006 37.21876144 4.000000
34.72679901 -15.25644016 37.22378159 4.000000
30.46568108 -14.10175991 37.12614059 4.000000
32.34130096 -14.50214958 37.42890167 4.000000
29.94828415 -12.74183369 37.17808533 4.000000
29.90001869 -11.37403965 37.12570190 4.000000
