-53.66659927 23.30685043 -124.72299957 2.000000
-52.90370178 23.33849907 -124.74099731 2.000000
-54.43489838 23.58440018 -123.98249817 2.000000
-53.78552246 23.67798042 -124.13459778 2.000000
-52.93569946 23.80895042 -124.47299957 2.000000
-61.19290161 13.89168739 -123.23374939 2.000000
-61.64913177 14.90610027 -123.31983185 2.000000
-61.95327759 16.13772774 -123.20921326 2.000000
-61.88262558 17.64389992 -123.21837616 2.000000
-61.57158661 18.83858871 -123.09799957 2.000000
-61.13404465 20.08995628 -122.88871002 2.000000
-60.65577316 20.49582481 -123.48049927 2.000000
-60.19881058 21.19572639 -123.01918030 2.000000
-59.25099945 21.84678078 -123.23100281 2.000000
-58.67666245 22.34881210 -122.95612335 2.000000
-57.63926697 22.77946663 -123.15599823 2.000000
-56.40294266 23.22977066 -123.16999817 2.000000
-56.00279999 23.55793381 -122.76699829 2.000000
-54.88484192 23.89138031 -123.10119629 2.000000
-53.71383286 24.15426636 -123.44866943 2.000000
-61.42499924 14.19624996 -122.16799927 2.000000
-61.80130005 14.78552532 -121.65399933 2.000000
-62.22180176 16.24744987 -121.39717102 2.000000
-62.07278061 15.98552036 -121.88800049 2.000000
-62.27576447 17.54814911 -121.55349731 2.000000
-62.12020111 17.74010086 -122.22299957 2.000000
-62.32645035 18.45165062 -121.14099884 2.000000
-61.97013092 18.90110016 -121.85466766 2.000000
-61.54105759 20.21131706 -121.74058533 2.000000
-61.11479950 21.12738037 -121.47260284 2.000000
-60.37319946 21.68889999 -121.74081421 2.000000
-59.90145111 22.22434998 -121.41899872 2.000000
-58.90737534 22.69344139 -121.71308136 2.000000
-57.75735092 23.19905090 -121.85350037 2.000000
-57.16965103 23.51279831 -121.68250275 2.000000
-56.39006805 23.84944916 -121.55870056 2.000000
-55.10561371 24.38850021 -121.74700165 2.000000
-54.34460068 24.61079979 -122.13099670 2.000000
-54.98289871 24.80150032 -121.19699860 2.000000
-61.83340073 14.83829975 -120.41749573 2.000000
-62.32798386 16.37472916 -120.37328339 2.000000
-62.50735092 17.45709991 -120.43049622 2.000000
-62.46476746 18.72369957 -120.43083191 2.000000
-62.27890015 19.92575073 -120.12300110 2.000000
-61.98451996 20.34827995 -120.49539948 2.000000
-61.31980133 21.41664505 -120.45733643 2.000000
-60.69699860 21.99029922 -120.56600189 2.000000
-60.18026352 22.42328644 -120.45687866 2.000000
-59.04545593 23.08105659 -120.52457428 2.000000
-58.31990051 23.53840065 -120.34799957 2.000000
-57.56788254 23.73715019 -120.58467102 2.000000
-56.22881699 24.30231667 -120.33233643 2.000000
-55.34519958 24.61000061 -120.64299774 2.000000
-55.22705078 24.80644989 -120.43849945 2.000000
-62.06019974 15.01119995 -119.25250244 2.000000
-62.49158478 16.44775009 -119.08983612 2.000000
-62.72079849 17.34904861 -119.15750122 2.000000
-62.80097580 18.71689987 -119.15800476 2.000000
-62.49393463 20.19422150 -119.14544678 2.000000
-62.22904968 21.12215042 -118.85549927 2.000000
-61.72854614 21.57117653 -119.24969482 2.000000
-61.11424255 22.36770058 -118.95056915 2.000000
-60.25598907 22.87933922 -119.21900177 2.000000
-59.44229889 23.28804970 -119.44400024 2.000000
-58.83763504 23.70384407 -119.16188812 2.000000
-57.64540100 24.12034988 -119.16466522 2.000000
-56.45354843 24.44718742 -119.22712708 2.000000
-55.89939880 24.72450066 -118.66500092 2.000000
-55.42819977 24.78590012 -119.68699646 2.000000
-62.54461670 16.36516571 -117.91466522 2.000000
-62.95028687 17.58533859 -117.85787201 2.000000
-63.02939987 18.71281433 -117.82471466 2.000000
-62.87569046 20.22220039 -117.78377533 2.000000
-62.39183426 21.48900032 -117.79783630 2.000000
-62.03789902 21.83279991 -118.22499847 2.000000
-61.51684952 22.54430962 -117.77570343 2.000000
-60.62205124 23.18634987 -117.90100098 2.000000
-60.10599899 23.52705956 -117.76940155 2.000000
-58.97584152 24.01447105 -117.81214142 2.000000
-57.67832565 24.34922409 -117.93449402 2.000000
-56.61627579 24.60862541 -117.89800262 2.000000
-55.92366791 24.82546616 -117.69533539 2.000000
-62.60369873 16.47383690 -116.61999512 2.000000
-62.96550751 17.47457314 -116.75827026 2.000000
-63.20492172 18.73694038 -116.64080048 2.000000
-63.16731262 20.27995682 -116.51000214 2.000000
-62.74729919 21.50128555 -116.66043091 2.000000
-62.30879974 22.26497459 -116.51150513 2.000000
-61.52375412 22.93417358 -116.66027069 2.000000
-61.02149963 23.41749954 -116.23000336 2.000000
-60.30728912 23.72423744 -116.58950043 2.000000
-58.83871460 24.24180031 -116.60237122 2.000000
-57.69482040 24.43724060 -116.76799774 2.000000
-56.86986923 24.63653374 -116.66133118 2.000000
-56.39340210 24.90526581 -116.99800110 2.000000
-62.85520172 16.72430038 -115.16400146 2.000000
-63.07968521 17.59043121 -115.27400208 2.000000
-63.28683472 18.24943352 -115.00566864 2.000000
-63.47509766 19.96825027 -114.67500305 2.000000
-63.36973190 20.46251678 -115.41066742 2.000000
-63.10162354 21.59729958 -115.15922546 2.000000
-62.56661224 22.44287491 -115.09687805 2.000000
-61.82081604 23.05848312 -115.33750153 2.000000
-61.13171387 23.59748268 -114.99133301 2.000000
-60.16379929 23.96866608 -115.17800140 2.000000
-58.89923859 24.24651337 -115.22662354 2.000000
-57.73146820 24.47286606 -115.48400116 2.000000
-56.88600159 24.69459915 -115.66100311 2.000000
-62.94892502 17.82862473 -113.91987610 2.000000
-63.47004700 19.19879913 -113.65750122 2.000000
-63.27841949 18.76114082 -113.87599945 2.000000
-63.60305023 20.21501732 -113.82333374 2.000000
-63.46459961 21.22900009 -113.66600037 2.000000
-63.27130127 21.65550041 -114.14900208 2.000000
-62.59584808 22.64999962 -113.90612793 2.000000
-61.92774963 23.25995064 -113.91600037 2.000000
-61.20906067 23.62022018 -113.96420288 2.000000
-60.19490051 23.88660049 -113.89900208 2.000000
-59.26160049 24.05572510 -114.05549622 2.000000
-63.46849823 19.19779968 -113.14800262 2.000000
-63.29924393 19.10230827 -112.68545532 2.000000
-63.57902145 20.25539970 -112.72554779 2.000000
-63.34489822 19.83013916 -112.28320313 2.000000
-63.60683823 21.42133713 -112.72675323 2.000000
-63.28385544 21.79638672 -112.59342957 2.000000
-62.68585968 22.65394020 -112.66429901 2.000000
-61.96400070 23.08129883 -112.65000153 2.000000
-61.41784668 23.51129913 -112.90699768 2.000000
-60.39730072 23.76392555 -112.76574707 2.000000
-62.89939880 19.21610069 -111.66300201 2.000000
-63.49679947 20.70690155 -111.61450195 2.000000
-63.16759872 20.17858315 -111.47766876 2.000000
-63.49750137 21.21430016 -111.62599945 2.000000
-63.28694916 21.40686226 -111.33924866 2.000000
-62.76943588 22.42552567 -111.31250000 2.000000
-61.63529968 23.01255035 -111.11724854 2.000000
-62.93315125 21.46895027 -110.64199829 2.000000
-62.46829987 22.28650093 -110.57199860 2.000000
-55.18103409 5.89866018 -138.33200073 3.000000
-55.32279968 5.05570984 -136.74400330 3.000000
-55.84799957 4.59052992 -136.22099304 3.000000
-55.22415924 4.76346588 -136.03939819 3.000000
-55.42699814 3.80223989 -134.12100220 3.000000
-54.80189133 4.47084188 -134.64358521 3.000000
-54.80028534 3.61665344 -133.41966248 3.000000
-54.57563400 4.56638193 -133.66967773 3.000000
-54.30120087 4.48085499 -133.17950439 3.000000
-54.82260132 3.07190990 -132.77200317 3.000000
-54.02226639 3.28642344 -132.19067383 3.000000
-54.15520096 4.30558491 -132.16099548 3.000000
-55.14959717 0.94875699 -130.67050171 3.000000
-55.04019928 1.37369001 -130.98800659 3.000000
-53.51914978 1.92950988 -130.47149658 3.000000
-53.77783966 3.32277608 -130.85980225 3.000000
-53.73260117 1.24948001 -129.79600525 3.000000
-53.37356567 2.22927666 -129.66166687 3.000000
-53.78536987 3.21202087 -129.75959778 3.000000
-54.43019867 -0.74664497 -127.62699890 3.000000
-53.39009857 1.22291005 -128.16499329 3.000000
-52.85707855 1.04713845 -128.05520630 3.000000
-53.38587570 1.87787378 -128.16487122 3.000000
-53.68494034 3.23064804 -128.00109863 3.000000
-53.58663177 4.28154612 -128.15739441 3.000000
-54.51795197 -1.13036489 -127.29000092 3.000000
-53.72260284 -0.53711402 -127.06424713 3.000000
-52.49380112 -0.33061501 -126.63400269 3.000000
-53.15573502 1.16950333 -127.01233673 3.000000
-52.69554901 0.51291049 -126.89775085 3.000000
-53.44503403 1.98893666 -126.90066528 3.000000
-53.89338303 2.98753834 -126.94233704 3.000000
-52.34015656 -0.67657399 -125.78143311 3.000000
-53.10153198 1.15250993 -125.66999817 3.000000
-52.75585938 0.39144015 -125.67557526 3.000000
-53.45562744 1.97668576 -125.51899719 3.000000
-53.00749969 3.00504494 -125.38449860 3.000000
-54.30289841 -3.94046998 -123.83799744 3.000000
-53.60994720 -3.65772486 -123.77449799 3.000000
-52.86410141 -3.34512997 -123.72499847 3.000000
-51.93925858 -1.61340404 -124.16819763 3.000000
-51.60430145 -2.30180001 -124.12699890 3.000000
-52.23928070 -0.90792602 -124.47480011 3.000000
-53.09823227 1.22018659 -124.32566833 3.000000
-52.90097427 0.47033751 -124.41149902 3.000000
-53.73088837 2.06394410 -124.35330200 3.000000
-54.41759872 -4.24907017 -123.62200165 3.000000
-53.70735168 -4.38721323 -123.18849945 3.000000
-52.56806564 -4.11243677 -122.81133270 3.000000
-52.31297302 -3.26850724 -123.23000336 3.000000
-51.28086090 -2.95516205 -122.93199921 3.000000
-51.96417999 -1.85984695 -123.16069794 3.000000
-51.56768417 -2.24652839 -123.15433502 3.000000
-52.45904922 -0.61404598 -123.16220093 3.000000
-53.20759964 1.24626660 -123.14800262 3.000000
-52.93109894 0.57034642 -123.16371918 3.000000
-53.00180054 1.72763503 -123.41049957 3.000000
-53.33599854 -6.83683014 -121.24099731 3.000000
-52.49314499 -5.91223860 -121.31085968 3.000000
-52.25961304 -4.70900011 -122.08643341 3.000000
-51.07122421 -4.59288883 -121.52422333 3.000000
-51.77470016 -3.88716006 -122.28399658 3.000000
-51.28869247 -3.20666456 -121.59172821 3.000000
-51.96792603 -1.68796003 -121.53324890 3.000000
-51.67697525 -2.30502987 -121.67449951 3.000000
-52.46407318 -0.74843240 -121.80814362 3.000000
-53.19274139 0.75955379 -121.95439911 3.000000
-52.96310043 0.18341050 -121.92500305 3.000000
-52.58006668 -8.06565666 -119.97699738 3.000000
-52.45021439 -7.16365528 -120.36129761 3.000000
-51.51490021 -6.60249996 -119.97200012 3.000000
-52.12535095 -6.14881325 -120.79000092 3.000000
-51.28076553 -5.78877783 -120.44155884 3.000000
-50.05530167 -5.34802008 -120.18499756 3.000000
-50.67163849 -4.37514210 -120.36240387 3.000000
-50.29013443 -4.88600349 -120.31300354 3.000000
-51.27438354 -3.21511173 -120.40866852 3.000000
-51.69710159 -2.21122003 -120.69899750 3.000000
-52.44689941 -9.25720024 -119.12100220 3.000000
-52.06829071 -8.38268471 -119.22336578 3.000000
-51.47824860 -8.20585442 -118.82949829 3.000000
-51.94095993 -7.53838825 -119.61319733 3.000000
-51.22197723 -7.14544487 -119.28062439 3.000000
-50.37730026 -6.79581022 -118.68299866 3.000000
-50.60103226 -5.90415001 -119.33733368 3.000000
-50.05543518 -5.84937239 -119.01266479 3.000000
-50.65408325 -4.62376690 -119.25366211 3.000000
-50.34065247 -5.00129032 -119.40399933 3.000000
-51.04059219 -3.39246750 -119.06050110 3.000000
-51.29676819 -2.11653662 -119.17500305 3.000000
-51.69150162 -10.88609982 -117.29499817 3.000000
-51.96329880 -10.24390030 -118.10900116 3.000000
-51.17720032 -9.75638008 -117.40449524 3.000000
-51.32532120 -8.71853638 -118.23600006 3.000000
-50.30923462 -8.37782669 -117.61833191 3.000000
-49.90632629 -7.22226763 -117.76550293 3.000000
-50.15895844 -5.71462011 -117.96271515 3.000000
-50.58244324 -4.58352566 -117.94485474 3.000000
-50.33119965 -4.77423000 -117.18599701 3.000000
-50.69856644 -3.27224994 -117.83466339 3.000000
-51.54190063 -11.73799992 -116.55500031 3.000000
-51.06647873 -10.91337967 -116.50699615 3.000000
-50.27875137 -10.64515018 -116.01200104 3.000000
-50.76926804 -9.90070820 -116.82879639 3.000000
-49.99539948 -9.68820095 -116.40331268 3.000000
-49.58185959 -8.57826424 -116.56919861 3.000000
-48.74081421 -8.45204735 -116.29837799 3.000000
-49.49534988 -7.27079296 -116.54920197 3.000000
-48.90610123 -7.78920984 -116.66699982 3.000000
-49.96429825 -5.69024515 -116.41300201 3.000000
-50.18354797 -4.65847492 -116.69924927 3.000000
-50.70682144 -12.19553947 -115.07019806 3.000000
-50.28849792 -12.06700039 -114.95533752 3.000000
-50.88140106 -11.26130009 -115.12400055 3.000000
-49.83397293 -11.35361481 -114.97457123 3.000000
-48.12799835 -10.43060017 -114.68800354 3.000000
-49.40390015 -10.02457047 -115.66200256 3.000000
-48.45983505 -9.60257435 -115.06335449 3.000000
-47.78590012 -10.23569965 -114.67199707 3.000000
-48.78040695 -8.48979950 -115.34309387 3.000000
-49.38732529 -7.26617002 -115.53137207 3.000000
-49.57534790 -5.72983599 -115.17189789 3.000000
-49.51011276 -4.50315428 -115.25328827 3.000000
-50.76229858 -13.46461964 -114.20680237 3.000000
-50.33549881 -13.34589958 -113.74900055 3.000000
-50.70809937 -12.88290024 -114.40899658 3.000000
-49.70157242 -12.33899117 -114.06600189 3.000000
-48.48669815 -12.11267281 -113.50299835 3.000000
-49.40299988 -11.52759933 -114.39999390 3.000000
-48.30801392 -11.20752144 -113.99042511 3.000000
-47.69979858 -11.04264259 -113.56571198 3.000000
-48.25196075 -9.81476593 -113.99850464 3.000000
-47.76509857 -10.20534992 -113.89849854 3.000000
-48.76631546 -8.51322174 -113.91466522 3.000000
-49.22904968 -7.01222038 -114.21400452 3.000000
-49.03604889 -7.03723526 -113.62599945 3.000000
-49.09389877 -6.27868986 -113.59799957 3.000000
-49.10630035 -4.49349499 -114.53749847 3.000000
-48.49548340 -13.52911091 -112.45931244 3.000000
-47.43299103 -13.42506123 -112.20830536 3.000000
-48.33008194 -12.70429993 -113.03954315 3.000000
-47.37419510 -12.29523659 -112.67436218 3.000000
-47.47652054 -11.10113621 -112.68772888 3.000000
-48.09358215 -9.83076763 -112.81359863 3.000000
-48.55431747 -8.54959488 -112.55982971 3.000000
-48.75769806 -7.22013140 -112.60712433 3.000000
-48.85820007 -6.08584785 -112.57279968 3.000000
-50.86660004 -16.90419960 -110.78099823 3.000000
-50.75360107 -16.59494972 -111.17449951 3.000000
-49.86540985 -16.25379944 -110.88815308 3.000000
-48.32920074 -14.96457195 -111.24277496 3.000000
-47.20137024 -14.89998150 -111.15104675 3.000000
-46.20503235 -14.75270844 -110.93541718 3.000000
-48.34473801 -14.19280052 -111.88660431 3.000000
-47.00509262 -13.84827709 -111.69538116 3.000000
-46.29813385 -13.68355846 -111.10182953 3.000000
-47.01985550 -12.19276714 -111.38899994 3.000000
-46.44990158 -12.80690002 -111.15699768 3.000000
-47.47940063 -11.09207535 -111.29008484 3.000000
-47.98710251 -9.81086445 -111.31500244 3.000000
-47.76885223 -10.24034977 -111.05924988 3.000000
-48.28136444 -8.51499653 -111.27300262 3.000000
-48.36193466 -7.27827549 -111.17766571 3.000000
-48.45154953 -6.28765488 -111.40150452 3.000000
-50.61180115 -17.23674965 -110.44699860 3.000000
-49.67097473 -17.30840492 -109.82623291 3.000000
-48.65156174 -17.00266075 -109.59480286 3.000000
-46.98339844 -16.94639969 -109.40399933 3.000000
-45.97940063 -16.95549965 -109.47200012 3.000000
-49.48894882 -16.55623817 -110.37437439 3.000000
-48.49948883 -16.25025749 -110.19000244 3.000000
-47.20679474 -16.26532173 -110.02199554 3.000000
-45.87575531 -16.26760483 -109.97087097 3.000000
-45.13057327 -16.16834259 -109.61299896 3.000000
-47.30020142 -15.53599930 -110.65200043 3.000000
-45.70386505 -15.08837986 -110.22250366 3.000000
-45.17334747 -14.98760033 -109.55000305 3.000000
-45.92446136 -13.68907356 -110.14233398 3.000000
-45.18470001 -14.03320026 -110.52600098 3.000000
-46.90309143 -12.13527966 -110.11419678 3.000000
-46.43493271 -12.80700016 -110.16733551 3.000000
-47.35451126 -11.06089020 -110.21980286 3.000000
-47.92948151 -9.45773983 -110.48950195 3.000000
-47.67790985 -9.85902023 -109.97887421 3.000000
-47.99258423 -8.63317871 -110.05716705 3.000000
-47.84479904 -8.77425003 -109.67700195 3.000000
-48.05160141 -7.79206991 -110.11499786 3.000000
-49.45135117 -18.75628281 -108.41699982 3.000000
-48.63786697 -18.49329948 -108.28016663 3.000000
-47.26887512 -18.31150055 -108.14500427 3.000000
-45.89103317 -18.30313301 -108.18133545 3.000000
-44.92580032 -18.29366684 -108.19733429 3.000000
-49.57925034 -18.00460052 -109.10124969 3.000000
-48.44827652 -17.67033768 -108.94437408 3.000000
-47.19099045 -17.59580421 -108.79975891 3.000000
-45.86503220 -17.56499100 -108.89250183 3.000000
-44.65565109 -17.52385902 -108.58420563 3.000000
-44.76256180 -16.30232239 -108.84172058 3.000000
-45.41962814 -14.61501408 -108.76013947 3.000000
-45.02518082 -15.23845959 -108.85939789 3.000000
-45.96509171 -13.71249008 -108.72579956 3.000000
-46.79598999 -11.99079990 -108.83933258 3.000000
-46.44307709 -12.67580032 -108.53300476 3.000000
-47.07606506 -11.03426647 -108.66049957 3.000000
-47.42245483 -9.78699112 -108.65866852 3.000000
-47.62599945 -8.80299664 -108.66166687 3.000000
-49.29975128 -19.90705109 -107.45249939 3.000000
-48.46839905 -19.88303566 -107.12808990 3.000000
-47.39172745 -19.71667099 -106.92271423 3.000000
-46.00880051 -19.59875107 -106.87849426 3.000000
-44.57106018 -19.59881973 -106.85759735 3.000000
-49.24280167 -19.47579956 -107.81999969 3.000000
-48.38868332 -19.00773048 -107.80184937 3.000000
-47.19741058 -18.95490456 -107.54928589 3.000000
-45.92771530 -18.97282028 -107.50769806 3.000000
-44.56095886 -18.89380074 -107.52603912 3.000000
-43.72638321 -18.73896599 -107.07391357 3.000000
-44.08805084 -17.53487968 -107.71600342 3.000000
-43.82058334 -17.84653282 -107.17066956 3.000000
-44.43768692 -16.27041245 -107.43799591 3.000000
-45.48260117 -14.57474995 -107.40924835 3.000000
-45.06992340 -15.22869968 -107.41200256 3.000000
-45.87961578 -13.65724277 -107.49800110 3.000000
-46.68270111 -11.70919991 -107.70800018 3.000000
-46.39323807 -12.37977982 -107.36380005 3.000000
-46.81706619 -11.08950043 -107.34466553 3.000000
-47.16415024 -9.78627682 -107.40750122 3.000000
-48.39352036 -21.24908638 -106.04871368 3.000000
-47.11694336 -21.18808556 -105.72128296 3.000000
-45.99800110 -21.00212097 -105.60540009 3.000000
-44.84136581 -20.88080025 -105.59400177 3.000000
-43.64400101 -20.82519913 -105.49400330 3.000000
-48.36545944 -20.53675652 -106.56728363 3.000000
-47.11151505 -20.27781487 -106.41184235 3.000000
-45.87372589 -20.21320534 -106.28083801 3.000000
-44.57352829 -20.29386139 -106.16071320 3.000000
-43.38917160 -20.07022095 -105.96708679 3.000000
-43.29112625 -18.92384148 -106.16363525 3.000000
-44.09885025 -16.90734863 -105.93600464 3.000000
-43.63359070 -17.61664009 -106.11599731 3.000000
-44.43292999 -16.29801941 -106.21499634 3.000000
-45.41410065 -14.45743370 -106.49633026 3.000000
-45.02563858 -15.09469986 -106.06220245 3.000000
-45.72959900 -13.66872883 -106.25242615 3.000000
-46.23697662 -12.28465557 -106.16310883 3.000000
-46.74303436 -10.90233326 -106.52533722 3.000000
-46.50720215 -11.31694984 -105.89550018 3.000000
-46.84130096 -10.27159977 -106.68199921 3.000000
-47.87960052 -23.43000031 -104.38099670 3.000000
-47.38779831 -23.80109978 -104.19999695 3.000000
-48.08008957 -22.67551041 -104.92055511 3.000000
-47.11977386 -22.81591797 -104.64981079 3.000000
-45.89285278 -22.62160873 -104.44409180 3.000000
-44.69060135 -22.33955956 -104.31980133 3.000000
-48.20166779 -22.00753403 -105.42099762 3.000000
-47.06158447 -21.70153427 -105.34316254 3.000000
-45.88132858 -21.65213585 -105.08599854 3.000000
-44.51163483 -21.46737671 -105.00440979 3.000000
-43.28031158 -21.44612312 -104.79085541 3.000000
-42.42103577 -21.20499992 -104.41224670 3.000000
-42.79162216 -20.11288834 -105.18878174 3.000000
-42.44594193 -20.23609924 -104.62533569 3.000000
-42.99768829 -18.79281998 -105.00520325 3.000000
-42.52619934 -19.40130043 -104.19799805 3.000000
-43.69523239 -17.59461594 -104.91316986 3.000000
-44.28611374 -16.42398834 -104.92949677 3.000000
-44.90947723 -15.03612518 -104.91300201 3.000000
-45.49765015 -13.75390053 -104.92399597 3.000000
-45.21039963 -14.19939995 -104.18599701 3.000000
-46.04560089 -12.40427971 -104.96120453 3.000000
-45.98788834 -26.36971092 -102.99877930 3.000000
-46.90161133 -25.24811172 -103.48987579 3.000000
-45.99063110 -25.31137466 -103.25337982 3.000000
-44.94250107 -25.01910019 -103.00559998 3.000000
-47.89830017 -23.76479912 -104.09999847 3.000000
-47.02265549 -24.19548988 -103.93181610 3.000000
-45.91550064 -24.01544571 -103.69972992 3.000000
-44.63790894 -23.94799995 -103.33718109 3.000000
-43.63105011 -23.96506691 -103.03116608 3.000000
-42.54299927 -23.42749977 -102.97599792 3.000000
-45.67734146 -23.21343994 -104.03420258 3.000000
-44.53785324 -22.93891907 -103.88345337 3.000000
-43.28918076 -22.71317673 -103.70419312 3.000000
-42.18392181 -22.65435028 -103.27320099 3.000000
-42.02529526 -21.58399963 -103.59037781 3.000000
-42.13517380 -20.28709984 -103.65924835 3.000000
-42.97142029 -18.72006989 -103.67759705 3.000000
-42.58149719 -19.40859985 -103.42550659 3.000000
-43.59831619 -17.49231339 -103.59557343 3.000000
-44.25923920 -16.15278816 -103.66437531 3.000000
-43.90879822 -16.78824997 -103.41349792 3.000000
-44.83871078 -14.91912270 -103.66188812 3.000000
-45.46016693 -13.55898380 -103.65866852 3.000000
-45.88973999 -12.58821964 -103.76999664 3.000000
-42.37355042 -30.53240013 -101.71199799 3.000000
-44.29290009 -28.78610039 -102.37100220 3.000000
-43.18029022 -29.02136993 -101.90280151 3.000000
-42.41545105 -29.53985023 -101.62750244 3.000000
-45.71760178 -27.44879913 -102.74299622 3.000000
-44.53910065 -27.86896896 -102.38030243 3.000000
-43.35157013 -27.96906471 -101.92749786 3.000000
-45.55196762 -26.88125038 -102.77149963 3.000000
-44.59666061 -26.60747337 -102.50573730 3.000000
-43.27581024 -26.70987701 -101.95288086 3.000000
-42.50624847 -26.25164986 -101.70050049 3.000000
-45.30569839 -25.83399963 -102.87799835 3.000000
-44.49858475 -25.46370697 -102.71269226 3.000000
-43.27208710 -25.32228279 -102.32011414 3.000000
-42.08824539 -25.31645393 -101.82236481 3.000000
-43.17646790 -24.24346733 -102.72255707 3.000000
-41.98272705 -24.08485794 -102.27484131 3.000000
-41.17451859 -23.74795914 -101.79019928 3.000000
-41.57986069 -22.89056969 -102.57723236 3.000000
-41.16828156 -22.77586937 -101.97999573 3.000000
-41.56113052 -21.50954056 -102.21610260 3.000000
-41.29209900 -21.83419991 -101.69799805 3.000000
-42.02251816 -20.28137016 -102.14559937 3.000000
-42.95873260 -18.51293373 -102.12183380 3.000000
-42.53800201 -19.25835037 -101.98925018 3.000000
-43.47340775 -17.48485756 -102.14583588 3.000000
-44.23040009 -16.09099960 -102.24200439 3.000000
-43.87907410 -16.71535110 -102.10200500 3.000000
-44.83885574 -14.83236694 -102.16300201 3.000000
-45.34840012 -13.76574993 -102.40800476 3.000000
-45.18190002 -14.18249989 -102.14499664 3.000000
-41.41070175 -31.28039932 -101.14099884 3.000000
-40.61104965 -31.67559052 -100.67099762 3.000000
-41.72188187 -30.46726036 -101.31279755 3.000000
-40.69044876 -30.62369919 -100.60700226 3.000000
-41.84692001 -29.21026039 -101.23709869 3.000000
-40.89994049 -29.24675941 -100.63809967 3.000000
-42.11120605 -27.98051453 -101.30657196 3.000000
-40.80460739 -27.98209381 -100.60592651 3.000000
-41.82907104 -26.73184204 -101.32006836 3.000000
-40.62197495 -26.71187401 -100.66916656 3.000000
-41.46250153 -25.52953339 -101.42766571 3.000000
-40.70757675 -25.34472847 -100.99829102 3.000000
-39.91424179 -25.20446014 -100.46579742 3.000000
-40.50963974 -23.97693253 -101.04472351 3.000000
-39.87532043 -24.27148056 -100.42020416 3.000000
-40.64505386 -22.77243614 -100.97842407 3.000000
-41.45344162 -21.02358055 -101.08760071 3.000000
-41.08942795 -21.64270020 -100.92320251 3.000000
-41.87377548 -20.25093269 -100.97920227 3.000000
-42.84207153 -18.66799927 -101.06628418 3.000000
-42.49446869 -19.22326660 -100.75099945 3.000000
-43.45596313 -17.61675072 -100.91012573 3.000000
-44.30882263 -16.05014992 -100.91249847 3.000000
-43.91484833 -16.79215050 -100.91549683 3.000000
-44.79503250 -14.98453331 -101.00333405 3.000000
-38.42279816 -34.30319977 -99.09249878 3.000000
-39.12336731 -33.12041473 -99.51184845 3.000000
-38.54154968 -33.53860092 -99.00885010 3.000000
-39.43552399 -31.78104210 -99.67180634 3.000000
-40.31140137 -30.27420044 -100.28399658 3.000000
-39.49356842 -30.45780945 -99.65338135 3.000000
-40.32680130 -29.28183365 -100.26633453 3.000000
-39.37133026 -29.30635834 -99.58689117 3.000000
-38.71920013 -29.03840065 -99.13899994 3.000000
-40.11834717 -27.77529907 -100.19200134 3.000000
-39.36995316 -27.96154785 -99.67520905 3.000000
-38.53486633 -27.86369896 -99.09840393 3.000000
-39.37332916 -26.76336479 -99.83609009 3.000000
-38.56068420 -26.58499908 -99.22533417 3.000000
-39.20564270 -25.37689018 -99.76176453 3.000000
-38.55716705 -25.63493347 -99.21620178 3.000000
-39.47973251 -24.05621719 -99.63033295 3.000000
-40.27801514 -22.57670021 -99.74858856 3.000000
-39.88600159 -23.10779953 -99.47377777 3.000000
-41.36395264 -20.90005112 -99.76000214 3.000000
-40.90702820 -21.54914093 -99.62934875 3.000000
-41.86940765 -20.17327881 -99.64680481 3.000000
-42.95165634 -18.64042282 -99.54597473 3.000000
-42.48888397 -19.30423355 -99.70953369 3.000000
-43.57533646 -17.64907265 -99.68449402 3.000000
-44.27208710 -16.34941292 -99.73081207 3.000000
-37.66112518 -35.40677643 -98.26202393 3.000000
-37.26300049 -35.79069901 -97.83396912 3.000000
-37.81579971 -34.49842834 -98.39284515 3.000000
-37.23265076 -34.54325104 -97.85885620 3.000000
-37.94834518 -33.24266815 -98.45651245 3.000000
-37.22880173 -33.29153442 -97.87376404 3.000000
-38.11039352 -31.82291603 -98.60152435 3.000000
-37.23149872 -31.61529922 -97.93086243 3.000000
-38.11605835 -30.57590103 -98.61145020 3.000000
-37.15786743 -30.52894402 -97.90805817 3.000000
-38.12238693 -29.24699211 -98.65287018 3.000000
-37.12879944 -29.24561119 -97.92761993 3.000000
-37.94835663 -28.07366371 -98.66292572 3.000000
-37.15465927 -27.90138626 -98.01416016 3.000000
-37.89101410 -26.56538010 -98.44303894 3.000000
-37.26006699 -27.01910019 -97.91940308 3.000000
-38.30308914 -25.37623596 -98.30435181 3.000000
-39.12046814 -23.96000099 -98.40735626 3.000000
-38.65594864 -24.57089996 -98.03207397 3.000000
-40.20176697 -22.33213425 -98.47354889 3.000000
-39.74151993 -22.94708633 -98.30006409 3.000000
-40.84978485 -21.41925049 -98.31547546 3.000000
-41.81821442 -20.17195702 -98.28003693 3.000000
-41.32500076 -20.78079987 -98.16470337 3.000000
-43.03546524 -18.70976639 -98.32786560 3.000000
-42.48053360 -19.36493301 -98.25236511 3.000000
-43.59860229 -17.91474915 -98.45140076 3.000000
-36.35295105 -37.79174805 -96.98480225 3.000000
-35.93159866 -37.77159882 -96.60919952 3.000000
-36.61796570 -37.03196716 -97.19029999 3.000000
-35.78196716 -36.94316864 -96.60276794 3.000000
-36.69068909 -35.84547424 -97.38437653 3.000000
-35.75842667 -35.70838547 -96.63555908 3.000000
-36.73717499 -34.66842651 -97.45037842 3.000000
-35.80458069 -34.52651596 -96.72943115 3.000000
-36.58280182 -33.18521500 -97.36952972 3.000000
-35.72121048 -33.28034973 -96.73210144 3.000000
-36.56164932 -31.84321213 -97.42559052 3.000000
-35.64876556 -31.73817444 -96.73206329 3.000000
-36.42340088 -30.56505013 -97.38939667 3.000000
-35.65491486 -30.56835747 -96.76683044 3.000000
-36.45565033 -29.28216171 -97.42731476 3.000000
-35.84579849 -29.37518692 -96.80611420 3.000000
-36.59934235 -27.79929161 -97.06733704 3.000000
-36.09224701 -28.45960045 -96.66494751 3.000000
-37.55130005 -26.09393311 -97.27866364 3.000000
-37.11552429 -26.73238373 -97.02661133 3.000000
-37.95681381 -25.32439423 -97.08978271 3.000000
-38.92994308 -23.78112793 -97.31359863 3.000000
-38.51061630 -24.24900055 -96.94207001 3.000000
-39.51061630 -22.79177856 -97.09466553 3.000000
-40.52073288 -21.49621201 -97.13690948 3.000000
-39.85275269 -21.97340012 -96.52700043 3.000000
-41.69703674 -19.98476219 -97.09042358 3.000000
-41.09643936 -20.58506012 -96.91030121 3.000000
-43.03213120 -18.56492043 -97.18635559 3.000000
-42.35911560 -19.16640091 -96.93105316 3.000000
-43.37833405 -18.11756706 -97.19766998 3.000000
-34.95465088 -39.49394989 -95.30625153 3.000000
-34.60105133 -39.30899811 -95.24435425 3.000000
-35.28864670 -38.33936691 -95.94214630 3.000000
-34.39149857 -38.07202911 -95.38510132 3.000000
-35.18662643 -37.02892303 -96.10690308 3.000000
-34.36411285 -37.07454300 -95.49508667 3.000000
-35.14481735 -35.78203583 -96.16370392 3.000000
-34.22895813 -35.78384018 -95.54224396 3.000000
-33.43980026 -35.27550125 -95.09880066 3.000000
-35.09215164 -34.54182434 -96.23497772 3.000000
-34.07886505 -34.38053513 -95.58093262 3.000000
-33.40985107 -34.53264999 -95.14499664 3.000000
-35.05781555 -33.24516678 -96.24931335 3.000000
-34.20874023 -33.12834930 -95.68901062 3.000000
-33.39076614 -33.28269958 -95.17253113 3.000000
-35.00078201 -31.77112007 -96.24166107 3.000000
-34.12508392 -31.72219086 -95.56834412 3.000000
-33.37429810 -32.28359985 -95.19589996 3.000000
-35.04256821 -30.27306747 -96.14233398 3.000000
-34.50616074 -30.48835373 -95.53474426 3.000000
-35.31517029 -29.22233200 -95.77905273 3.000000
-34.75260162 -29.71260071 -95.19539642 3.000000
-36.31732178 -27.51210022 -95.88420105 3.000000
-35.87260818 -28.19763374 -95.77655792 3.000000
-36.65513992 -26.70159912 -95.66598511 3.000000
-37.61322021 -25.03536034 -96.01187897 3.000000
-37.18371964 -25.42308235 -95.55071259 3.000000
-37.97816467 -24.09397507 -95.78797150 3.000000
-37.42119980 -24.29170036 -95.13970184 3.000000
-39.04575729 -22.62908936 -95.97679901 3.000000
-38.38780975 -22.89522934 -95.45118713 3.000000
-40.26006699 -20.96226692 -96.12689972 3.000000
-39.40384293 -21.41715050 -95.59183502 3.000000
-41.51625061 -19.66194916 -96.20890045 3.000000
-40.70042419 -20.13006592 -95.82527924 3.000000
-39.75527573 -20.55122375 -95.33512878 3.000000
-41.91526031 -19.19128036 -96.13188171 3.000000
-34.14395142 -40.54159927 -94.68064880 3.000000
-33.19445038 -40.75199890 -93.94827271 3.000000
-34.07816696 -39.69311523 -94.80458069 3.000000
-33.15146637 -39.66020966 -94.22276306 3.000000
-33.88124847 -38.53482437 -94.93775177 3.000000
-32.86755753 -38.27904892 -94.31171417 3.000000
-31.93009949 -37.79359818 -93.80619812 3.000000
-33.56110001 -37.24219894 -94.92060089 3.000000
-32.94967651 -37.03581238 -94.56355286 3.000000
-31.94645882 -37.15034103 -93.93724060 3.000000
-32.82609177 -35.84593964 -94.61959839 3.000000
-31.76656723 -35.84299850 -93.98655701 3.000000
-32.76261139 -34.52684021 -94.70291901 3.000000
-31.70809937 -34.38871765 -93.99846649 3.000000
-32.71485138 -33.19822693 -94.65139771 3.000000
-31.92546082 -33.28757858 -93.99411774 3.000000
-33.68443298 -31.54843330 -94.98526764 3.000000
-33.13527679 -31.79727173 -94.33345032 3.000000
-34.02919006 -30.46163750 -94.51506805 3.000000
-33.46119690 -31.04550171 -94.05590057 3.000000
-34.99726868 -28.88388443 -94.58036804 3.000000
-34.67046738 -29.39664459 -94.47161102 3.000000
-35.39471436 -27.95195770 -94.37325287 3.000000
-36.27425003 -26.34957504 -94.76707458 3.000000
-35.80569839 -26.72627449 -94.32058716 3.000000
-36.54808044 -25.23718071 -94.61280823 3.000000
-35.87878418 -25.40386581 -93.97241211 3.000000
-37.51259995 -23.63240051 -94.93609619 3.000000
-36.85301590 -24.05613899 -94.50926971 3.000000
-36.07609940 -24.32060051 -93.93810272 3.000000
-37.84656143 -22.60244942 -94.77557373 3.000000
-36.82886887 -22.85970116 -94.12342072 3.000000
-38.93769836 -20.94499969 -94.95610046 3.000000
-38.26668930 -21.44022751 -94.71281433 3.000000
-37.11368179 -21.72376060 -94.15203857 3.000000
-39.17649841 -20.62457466 -94.96937561 3.000000
-32.56375122 -42.12266541 -93.16656494 3.000000
-31.83254051 -42.05754089 -92.69054413 3.000000
-32.67894363 -41.06995773 -93.53042603 3.000000
-31.57807541 -40.97344971 -92.92518616 3.000000
-30.87450027 -40.54710007 -92.71444702 3.000000
-32.37623215 -39.79140091 -93.70179749 3.000000
-31.56287193 -39.70005798 -93.26278687 3.000000
-30.40500069 -39.63677216 -92.72008514 3.000000
-31.52269936 -38.31206512 -93.52658844 3.000000
-30.38865089 -38.28169250 -92.93209076 3.000000
-31.18063927 -37.13351822 -93.51187897 3.000000
-30.27803421 -37.07097626 -92.99850464 3.000000
-29.48419952 -37.03395081 -92.51629639 3.000000
-31.18664360 -35.75405502 -93.61022949 3.000000
-30.35104942 -35.75316620 -92.96094513 3.000000
-29.51490021 -35.83806610 -92.61470032 3.000000
-31.12998390 -34.29925156 -93.50544739 3.000000
-30.58863831 -34.51004028 -92.91874695 3.000000
-31.57017517 -33.08826447 -93.18385315 3.000000
-32.68152618 -31.75825882 -93.23664856 3.000000
-32.09740067 -32.30839920 -92.72496796 3.000000
-33.71401978 -30.25485992 -93.30328369 3.000000
-33.31278229 -30.80671692 -93.09661865 3.000000
-34.08335114 -29.33629990 -93.13162994 3.000000
-34.99196625 -27.56326675 -93.52120209 3.000000
-34.47384262 -28.08562088 -93.06435394 3.000000
-35.14218903 -26.59116173 -93.47570038 3.000000
-34.50646210 -26.78873825 -92.80836487 3.000000
-35.29161835 -25.21133614 -93.38008881 3.000000
-34.59555054 -25.27695084 -92.71701813 3.000000
-35.38148499 -23.95497513 -93.21035004 3.000000
-34.68009949 -24.27994919 -92.63244629 3.000000
-36.31006622 -22.52373314 -93.66316986 3.000000
-35.54426956 -22.97137070 -93.13892365 3.000000
-36.58789825 -21.95249939 -93.77339935 3.000000
5.08705997 -63.93299866 -92.43540192 3.000000
6.36036491 -63.73609924 -92.22970581 3.000000
7.10283995 -63.78229904 -92.16539764 3.000000
8.60148811 -64.04003143 -91.97261810 3.000000
9.60599995 -63.74079895 -91.77369690 3.000000
0.98891926 -62.92842484 -91.37417603 3.000000
2.02814865 -62.97684479 -91.63137054 3.000000
3.64701009 -62.90293503 -91.71668243 3.000000
4.85424614 -63.07513046 -91.86746216 3.000000
6.01006937 -63.11723709 -91.82567596 3.000000
7.35515356 -63.02394867 -91.67490387 3.000000
8.54932404 -63.05556870 -91.50177765 3.000000
9.60986996 -63.30419922 -91.60600281 3.000000
2.34513998 -62.23405075 -91.23809814 3.000000
3.60468006 -62.18400192 -91.28779602 3.000000
4.85640001 -62.21979904 -91.25505066 3.000000
6.10367012 -62.20859909 -91.28320313 3.000000
7.35735989 -62.24905014 -91.22125244 3.000000
-30.38854980 -43.53120041 -91.42196655 3.000000
-29.38050079 -43.30229950 -91.22080231 3.000000
-31.29877472 -42.47907639 -92.18840027 3.000000
-30.37924004 -42.30485916 -91.91661835 3.000000
-28.94809914 -42.23556137 -91.46286011 3.000000
-27.86680031 -41.80590057 -91.25279999 3.000000
-30.22514343 -40.94865799 -92.30392456 3.000000
-28.95947456 -40.99883652 -91.80885315 3.000000
-27.70547485 -40.81972504 -91.38089752 3.000000
-29.73429871 -39.57005310 -92.40824890 3.000000
-28.92768860 -39.83816910 -92.00833130 3.000000
-27.71763802 -39.75593567 -91.47503662 3.000000
-29.05734253 -38.27197266 -92.19566345 3.000000
-27.85797310 -38.37122726 -91.53351593 3.000000
-28.81437302 -36.90288162 -91.99581146 3.000000
-27.98498344 -37.27401733 -91.33971405 3.000000
-29.70413399 -35.13746643 -91.74150085 3.000000
-29.22571182 -35.82149506 -91.72933960 3.000000
-30.28420639 -34.43977737 -91.90100098 3.000000
-31.34443855 -33.02719498 -91.87504578 3.000000
-30.84517479 -33.70447540 -91.71927643 3.000000
-32.51905823 -31.45957947 -92.11725616 3.000000
-32.02773285 -32.01448822 -91.83998108 3.000000
-32.85894012 -30.54306793 -91.87313080 3.000000
-32.23649979 -31.20190048 -91.24870300 3.000000
-33.73760223 -28.99744987 -92.30374908 3.000000
-33.17498016 -29.30753708 -91.70792389 3.000000
-33.79798126 -27.89574051 -92.17687988 3.000000
-33.26386261 -27.90158844 -91.54641724 3.000000
-33.87915802 -26.64022064 -92.13362122 3.000000
-33.29290009 -26.78165054 -91.50026703 3.000000
-33.96430969 -25.26515961 -92.06173706 3.000000
-33.31100082 -25.67325974 -91.42839813 3.000000
-34.12849045 -24.08308983 -92.02855682 3.000000
-34.68310165 -23.34110069 -92.47290039 3.000000
-0.41940948 -62.76094818 -90.95690155 3.000000
9.58570957 -62.84349823 -91.08039856 3.000000
-1.68067670 -61.98619843 -90.04703522 3.000000
-0.34815201 -61.71586609 -90.40951538 3.000000
0.78946787 -61.78302383 -90.72678375 3.000000
1.91823375 -61.66072464 -90.85018921 3.000000
3.53031135 -61.56062698 -90.89576721 3.000000
4.85167217 -61.55139923 -90.88490295 3.000000
6.18859148 -61.51544952 -90.85955048 3.000000
7.35102749 -61.55788803 -90.62603760 3.000000
8.47784328 -61.91751862 -90.66729736 3.000000
9.61194038 -62.23609924 -90.74150085 3.000000
-0.04395200 -60.66690063 -90.04086304 3.000000
0.85815901 -60.54544830 -90.13582611 3.000000
2.20104289 -60.45746231 -90.22161102 3.000000
3.55547094 -60.49113846 -90.26410675 3.000000
4.85256672 -60.61913300 -90.32283783 3.000000
5.95100307 -60.69658661 -90.24179840 3.000000
7.03831005 -60.94079971 -90.05539703 3.000000
8.10476971 -60.78639984 -90.15160370 3.000000
-28.65164948 -45.73155212 -90.05189514 3.000000
-27.90660095 -45.70249939 -89.97409821 3.000000
-30.16622543 -44.41209793 -90.91369629 3.000000
-28.88780785 -44.76677322 -90.53929138 3.000000
-27.65663338 -44.77635193 -90.30070496 3.000000
-26.56789970 -44.60621643 -90.13604736 3.000000
-25.43689919 -44.23770142 -89.99680328 3.000000
-28.82142067 -43.55170059 -90.97836304 3.000000
-27.64262581 -43.53992462 -90.68029785 3.000000
-26.40444946 -43.51883316 -90.37918091 3.000000
-25.09216690 -43.43026733 -90.05690002 3.000000
-28.41090012 -42.76649857 -91.11180115 3.000000
-27.61373901 -42.36643982 -91.01186371 3.000000
-26.40205574 -42.28168869 -90.64714050 3.000000
-25.04118538 -42.28762817 -90.16928864 3.000000
-27.39170074 -41.28559875 -91.17829895 3.000000
-26.45518684 -40.90118790 -90.84347534 3.000000
-25.20700073 -40.86161041 -90.20101166 3.000000
-26.33385086 -39.69797897 -90.69268799 3.000000
-25.44486046 -39.94005966 -90.13414001 3.000000
-27.20283318 -37.99188232 -90.87031555 3.000000
-26.57663536 -38.45073318 -90.40193939 3.000000
-25.39929962 -38.78820038 -90.66580200 3.000000
-28.44289970 -36.46799850 -91.05194855 3.000000
-27.70381355 -37.08239365 -90.43059540 3.000000
-28.87713814 -35.81322098 -90.56449127 3.000000
-28.28650093 -36.33810043 -90.10289764 3.000000
-30.07795715 -34.31194305 -90.57591248 3.000000
-29.54927444 -34.91537476 -90.24510193 3.000000
-31.12730026 -32.86243439 -90.84400177 3.000000
-30.65438652 -33.33626175 -90.40470886 3.000000
-31.54668427 -31.89972305 -90.59046936 3.000000
-30.91069984 -32.49309921 -89.88610077 3.000000
-32.39012527 -30.34860039 -90.97702789 3.000000
-31.93898964 -30.68503952 -90.40695953 3.000000
-32.55706787 -29.15404510 -90.80884552 3.000000
-32.07189941 -29.26438522 -90.16351318 3.000000
-32.57965469 -28.08679962 -90.68627930 3.000000
-32.08577728 -28.16132545 -90.04627228 3.000000
-32.68265915 -26.81169128 -90.75444031 3.000000
-32.13393402 -27.00333405 -90.09609985 3.000000
-32.93090057 -25.92679977 -90.99569702 3.000000
-4.18284988 -61.27285004 -88.76129913 3.000000
-2.73344564 -61.71088409 -89.48141479 3.000000
-1.77461338 -61.41046524 -89.77923584 3.000000
-3.91790009 -60.53264999 -88.71089935 3.000000
-2.96455860 -60.49567032 -89.08660126 3.000000
-1.59514201 -60.38920212 -89.54615784 3.000000
-0.78551751 -60.26517487 -89.71477509 3.000000
5.10472012 -59.98180008 -89.72360229 3.000000
6.19427586 -60.20428467 -89.60525513 3.000000
7.22015476 -60.56152344 -89.51679993 3.000000
8.14902020 -60.64849854 -89.85310364 3.000000
-3.89823675 -59.28286743 -88.66816711 3.000000
-2.89789343 -59.28555679 -88.94207764 3.000000
-1.70718598 -59.17401886 -89.21247864 3.000000
-0.33879626 -59.21302414 -89.44705963 3.000000
0.85369468 -59.25944901 -89.54603577 3.000000
2.10413122 -59.26002121 -89.53878784 3.000000
3.63981438 -59.19812775 -89.32405853 3.000000
4.83491659 -59.24603271 -89.09434509 3.000000
6.05588293 -59.38264847 -88.96778870 3.000000
7.10294008 -59.78440094 -89.16190338 3.000000
-4.01732254 -57.78269958 -88.63577271 3.000000
-2.90853453 -57.77383423 -88.79859924 3.000000
-1.63943493 -57.79478455 -88.92623138 3.000000
-0.34912300 -57.81058884 -88.89645386 3.000000
0.85427850 -58.02614975 -88.91737366 3.000000
2.03797245 -58.16714859 -88.83547211 3.000000
3.35285497 -58.28590012 -88.66130066 3.000000
-3.89089990 -56.79029846 -88.58989716 3.000000
-2.89620996 -56.78849792 -88.63406372 3.000000
-1.89915001 -56.80440140 -88.61229706 3.000000
1.66345000 -57.20209885 -88.70860291 3.000000
-0.32356700 -55.23339844 -88.59739685 3.000000
-22.16379929 -50.78824997 -89.09465027 3.000000
-21.05115891 -51.18080139 -88.80279541 3.000000
-20.41553307 -51.28493500 -88.61506653 3.000000
-23.72936630 -49.95600128 -89.07450104 3.000000
-22.40886688 -50.03509903 -88.98086548 3.000000
-21.13052368 -50.02199936 -88.72417450 3.000000
-25.05153275 -48.41709900 -88.98260498 3.000000
-23.83556175 -48.71059799 -88.99387360 3.000000
-22.38037872 -48.78055573 -88.84898376 3.000000
-21.27495003 -48.90757370 -88.65387726 3.000000
-26.22296715 -47.38095093 -89.23933411 3.000000
-25.14548302 -47.29246521 -89.20054626 3.000000
-23.91164970 -47.51671600 -89.05971527 3.000000
-22.39145088 -47.53376770 -88.85776520 3.000000
-21.23113251 -47.44963455 -88.66040039 3.000000
-27.52012444 -46.29527283 -89.69744873 3.000000
-26.46026230 -46.21097565 -89.63449860 3.000000
-25.15390015 -46.01404953 -89.48992157 3.000000
-23.89286613 -46.28824234 -89.26091003 3.000000
-22.39495659 -46.28066635 -88.96091461 3.000000
-21.13936615 -46.28509903 -88.70639801 3.000000
-26.12129974 -45.32724762 -89.82099915 3.000000
-25.08118057 -44.90468216 -89.74317932 3.000000
-23.89743423 -44.78344345 -89.50566864 3.000000
-22.42015648 -44.78502274 -89.09826660 3.000000
-21.18760109 -44.88224030 -88.68894196 3.000000
-23.89559937 -43.53993225 -89.67700195 3.000000
-22.51669884 -43.58776093 -89.13031769 3.000000
-21.69096756 -43.59826660 -88.73646545 3.000000
-23.65461159 -42.27592087 -89.53289795 3.000000
-22.64747238 -42.30994415 -88.90889740 3.000000
-24.59146690 -40.71360016 -89.70919800 3.000000
-23.90203094 -40.92972565 -89.10537720 3.000000
-23.02160072 -41.39730072 -88.58499908 3.000000
-25.02770042 -39.57938385 -89.15935516 3.000000
-24.31559944 -40.12030029 -89.00530243 3.000000
-26.27448463 -38.25855637 -89.15209198 3.000000
-25.61834335 -38.86529922 -89.09200287 3.000000
-27.55536461 -36.95911407 -89.21332550 3.000000
-26.91220093 -37.55962372 -89.22102356 3.000000
-28.76409531 -35.63817978 -89.26284027 3.000000
-28.22116661 -36.23361588 -89.04621887 3.000000
-29.86611366 -34.10062790 -89.54203033 3.000000
-29.41588211 -34.60888672 -89.06279755 3.000000
-30.28242111 -33.14777374 -89.16278839 3.000000
-31.11705017 -31.57092476 -89.50033569 3.000000
-30.71100044 -32.02366638 -89.02581024 3.000000
-31.29549980 -30.66394615 -89.28487396 3.000000
-30.92889977 -30.98450089 -88.75650024 3.000000
-31.65794945 -29.48984909 -89.56803131 3.000000
-31.91614914 -28.04450035 -89.72194672 3.000000
-3.82895994 -61.73440170 -88.56729889 3.000000
-6.31953001 -60.48540115 -87.54885101 3.000000
-5.26951694 -60.37969971 -88.18360138 3.000000
-4.34769487 -60.52684784 -88.54815674 3.000000
-6.83247280 -59.22053146 -87.65032196 3.000000
-5.52520990 -59.20069885 -88.13238525 3.000000
-4.49339485 -59.27527618 -88.45862579 3.000000
6.09581995 -58.85910034 -88.57209778 3.000000
-7.98401785 -57.76974106 -87.44155884 3.000000
-6.85599089 -57.78399277 -87.86146545 3.000000
-5.66966152 -57.79491806 -88.25419617 3.000000
-4.66132593 -57.77299881 -88.51029968 3.000000
1.05452502 -57.43466568 -88.48826599 3.000000
2.17517281 -57.56219864 -88.24349976 3.000000
3.59473562 -57.76714325 -88.00207520 3.000000
4.76244164 -58.17024994 -88.01705170 3.000000
5.56160021 -58.42169952 -88.07240295 3.000000
-9.21301365 -56.26810074 -87.44789886 3.000000
-8.26712418 -56.55236053 -87.68083954 3.000000
-6.97309160 -56.56717300 -88.09214020 3.000000
-5.67733240 -56.53542328 -88.36652374 3.000000
-4.48341799 -56.49573898 -88.50537872 3.000000
-2.90831327 -56.33300018 -88.50250244 3.000000
-1.64848006 -56.41647339 -88.38662720 3.000000
-0.34100220 -56.41454697 -88.01884460 3.000000
0.90747350 -56.71891022 -87.88381195 3.000000
1.98653722 -56.91703796 -87.76124573 3.000000
3.64832997 -57.11619949 -87.37860107 3.000000
-15.88653278 -54.82086563 -87.34712982 3.000000
-12.90690041 -54.83179855 -87.28849792 3.000000
-12.14789963 -54.78810120 -87.42369843 3.000000
-10.81637096 -55.12580109 -87.48125458 3.000000
-9.45284557 -55.33943176 -87.69075012 3.000000
-8.14529037 -55.28145218 -88.05097961 3.000000
-6.90069103 -55.28215408 -88.21540070 3.000000
-5.65130663 -55.26675034 -88.29930115 3.000000
-4.34426022 -55.21892929 -88.20401001 3.000000
-2.89726925 -55.24170685 -87.95855713 3.000000
-1.72501004 -55.38209915 -87.67693329 3.000000
-0.75398874 -55.62689972 -87.44548035 3.000000
-18.62759972 -53.51895142 -87.69899750 3.000000
-17.39539909 -53.77803421 -87.65773010 3.000000
-15.89646721 -54.03661728 -87.42693329 3.000000
-14.65012550 -54.03837585 -87.44282532 3.000000
-13.39095020 -54.01481628 -87.51663208 3.000000
-12.15131664 -53.78946686 -87.69851685 3.000000
-10.90775013 -54.04788208 -87.78755188 3.000000
-9.39158821 -54.02356720 -88.02473450 3.000000
-8.14695549 -54.03272629 -88.16204834 3.000000
-6.96974897 -53.87008667 -88.07756042 3.000000
-5.65379000 -53.79691696 -87.81590271 3.000000
-4.43526316 -54.00986862 -87.58699036 3.000000
-3.07980657 -54.48036575 -87.46309662 3.000000
-19.54696655 -52.45623398 -88.22573090 3.000000
-18.60704041 -52.67961884 -87.94113922 3.000000
-17.38795471 -52.79651260 -87.76088715 3.000000
-15.89820004 -52.78779984 -87.68981934 3.000000
-14.65513325 -52.80490112 -87.76023102 3.000000
-13.40138912 -52.78583145 -87.83053589 3.000000
-12.13032532 -52.50499725 -87.99967194 3.000000
-10.88821125 -52.76316833 -88.04801941 3.000000
-9.40122509 -52.79491043 -88.07901001 3.000000
-8.14390659 -52.77365112 -87.91161346 3.000000
-6.88779736 -52.76403809 -87.57180023 3.000000
-5.56915998 -53.13354874 -87.35130310 3.000000
-19.64913368 -51.28644943 -88.34085083 3.000000
-18.66046715 -51.27461624 -88.08625031 3.000000
-17.33550072 -51.20806122 -87.97423553 3.000000
-15.89658928 -51.27516556 -88.00172424 3.000000
-14.64296627 -51.26916504 -88.05031586 3.000000
-13.39652252 -51.27671051 -88.06230164 3.000000
-12.15174961 -51.28936768 -88.03205109 3.000000
-10.89138889 -51.27236557 -87.92249298 3.000000
-9.46972466 -51.36144257 -87.61935425 3.000000
-8.25327682 -51.81453323 -87.43430328 3.000000
-19.88680077 -50.03126526 -88.40048218 3.000000
-18.64480019 -50.03350067 -88.18262482 3.000000
-17.39748383 -50.03073120 -88.14528656 3.000000
-15.89696693 -50.03258514 -88.16515350 3.000000
-14.64997482 -50.03572464 -88.12057495 3.000000
-13.41423321 -50.05333328 -88.02101898 3.000000
-12.11594009 -49.90843964 -87.72535706 3.000000
-11.06498337 -50.12113190 -87.47993469 3.000000
-9.81884003 -50.66889954 -87.30829620 3.000000
-20.91494942 -48.53659821 -88.56779480 3.000000
-19.90244484 -48.78411102 -88.40353394 3.000000
-18.63908386 -48.79154968 -88.28443146 3.000000
-17.39626694 -48.78412247 -88.21309662 3.000000
-15.90372276 -48.79118729 -88.13120270 3.000000
-14.65448380 -48.78686523 -87.94526672 3.000000
-13.51072216 -48.78342056 -87.66746521 3.000000
-12.35729980 -49.22035217 -87.47765350 3.000000
-20.90929985 -47.77999878 -88.57740021 3.000000
-19.90378380 -47.52881622 -88.45700073 3.000000
-18.63134956 -47.52622604 -88.30120087 3.000000
-17.40267181 -47.43377304 -88.13217163 3.000000
-15.85506248 -47.36682510 -87.78966522 3.000000
-14.67869949 -47.55818176 -87.48656464 3.000000
-14.01109982 -47.94789886 -87.43779755 3.000000
-19.89675522 -46.27798843 -88.43173218 3.000000
-18.64773369 -46.28528595 -88.16858673 3.000000
-17.38942337 -46.15961075 -87.73811340 3.000000
-16.18915939 -46.47586060 -87.47239685 3.000000
-20.94540024 -44.30229950 -88.55100250 3.000000
-19.80163574 -44.73244476 -88.13587189 3.000000
-18.58423424 -44.97679901 -87.63852692 3.000000
-17.57080078 -45.50279999 -87.42880249 3.000000
-21.00214958 -43.28025055 -88.14986420 3.000000
-20.04707527 -43.75013733 -87.76660919 3.000000
-22.19233322 -41.94622421 -88.10968781 3.000000
-21.45615959 -42.43458176 -87.75730133 3.000000
-23.49046898 -40.65174866 -87.97930908 3.000000
-22.71483421 -41.28858948 -87.88087463 3.000000
-24.82984924 -39.40007401 -87.90278625 3.000000
-24.07946777 -40.04883194 -87.90650940 3.000000
-26.16198349 -38.16999054 -87.96779633 3.000000
-25.50941658 -38.69018173 -87.63148499 3.000000
-27.51140594 -36.79441833 -87.98484802 3.000000
-26.84932518 -37.45957565 -87.92238617 3.000000
-28.67063522 -35.41766357 -88.04132843 3.000000
