-69.71640015 14.80500031 87.30039978 0.000000
-74.01229858 12.30959988 87.31849670 0.000000
-74.07710266 12.36509991 87.31670380 0.000000
-71.19239807 14.53279972 87.40599823 0.000000
-71.20809937 14.35719967 87.34780121 0.000000
-74.38480377 12.54170036 87.36609650 0.000000
-66.38279724 12.75870037 85.82250214 0.000000
-71.20860291 14.88290024 87.32649994 0.000000
-66.31729889 12.88160038 85.81980133 0.000000
-71.17739868 14.77449989 87.28119659 0.000000
-72.82369995 14.18830013 87.38520050 0.000000
-78.06490326 6.21656990 85.90489960 0.000000
-66.22769928 13.01309967 85.80709839 0.000000
-63.41239929 9.68334961 84.27469635 0.000000
-72.76909637 14.36069965 87.37110138 0.000000
-63.22330093 9.86042976 84.23310089 0.000000
-77.41149902 1.90120006 84.27690125 0.000000
-64.15029907 10.44419956 84.43689728 0.000000
-72.64710236 14.79650021 87.29989624 0.000000
-67.02140045 13.43039989 85.84709930 0.000000
-67.15619659 13.16940022 85.78620148 0.000000
-66.95030212 13.51519966 85.84929657 0.000000
-72.67410278 14.78450012 87.27230072 0.000000
-74.22250366 14.23419952 87.37139893 0.000000
-64.22250366 10.47309971 84.39479828 0.000000
-63.99060059 10.64340019 84.39669800 0.000000
-77.15789795 7.90790987 85.83889771 0.000000
-77.40019989 8.02200031 85.83670044 0.000000
-71.37979889 2.26892996 82.90049744 0.000000
-68.24349976 13.80459976 85.82330322 0.000000
-68.06849670 14.09799957 85.83360291 0.000000
-75.89350128 9.55088997 85.86640167 0.000000
-68.09700012 14.19579983 85.85369873 0.000000
-62.11660004 7.98548985 82.82240295 0.000000
-64.89620209 11.19169998 84.28749847 0.000000
-72.55470276 1.69227004 82.78939819 0.000000
-64.78890228 11.32040024 84.29959869 0.000000
-61.96580124 8.12357044 82.78389740 0.000000
-76.80259705 9.20149040 85.81030273 0.000000
-64.66400146 11.35960007 84.23380280 0.000000
-77.67559814 3.43060994 84.19599915 0.000000
-76.32720184 9.85725975 85.90480042 0.000000
-61.90309906 8.19067001 82.73619843 0.000000
-61.70220184 8.66701984 82.80940247 0.000000
-62.85599899 8.73958969 82.94139862 0.000000
-65.64399719 11.94820023 84.40910339 0.000000
-69.60269928 14.43470001 85.88289642 0.000000
-62.74269867 8.93297005 82.93730164 0.000000
-75.32099915 10.67520046 85.76409912 0.000000
-65.53530121 12.05179977 84.37500000 0.000000
-65.44439697 12.18039989 84.36869812 0.000000
-75.66049957 10.90450001 85.83280182 0.000000
-69.72889709 14.83520031 85.82530212 0.000000
-69.86049652 14.74279976 85.80249786 0.000000
-74.17130280 12.41269970 85.83489990 0.000000
-74.18489838 12.42090034 85.83689880 0.000000
-71.21690369 14.64410019 85.91079712 0.000000
-77.86830139 4.98613024 84.16200256 0.000000
-76.71469879 1.97291994 82.99310303 0.000000
-66.48100281 12.69810009 84.35320282 0.000000
-63.62580109 9.46907043 82.82420349 0.000000
-66.36280060 12.82170010 84.32710266 0.000000
-66.27169800 12.88049984 84.30750275 0.000000
-63.42079926 9.63265038 82.78829956 0.000000
-72.79650116 14.20209980 85.88289642 0.000000
-71.21700287 14.95429993 85.81999969 0.000000
-71.23770142 14.93640041 85.80539703 0.000000
-72.79309845 14.49979973 85.89050293 0.000000
-64.36280060 10.29269981 83.01770020 0.000000
-73.85299683 13.70100021 85.78330231 0.000000
-77.60520172 6.54532003 84.26110077 0.000000
-67.06999969 13.39159966 84.37400055 0.000000
-64.31349945 10.39760017 82.93859863 0.000000
-64.15750122 10.51130009 82.92710114 0.000000
-66.99019623 13.46749973 84.33879852 0.000000
-72.68379974 14.97150040 85.81970215 0.000000
-74.23560333 14.19260025 85.85420227 0.000000
-72.71469879 15.01620007 85.78880310 0.000000
-77.20010376 7.92577982 84.33380127 0.000000
-74.12609863 14.80389977 85.78160095 0.000000
-71.35720062 2.36243010 81.43849945 0.000000
-77.21579742 3.41599011 82.82669830 0.000000
-74.19170380 15.00899982 85.78859711 0.000000
-74.20400238 15.10039997 85.79969788 0.000000
-68.16950226 13.93929958 84.33799744 0.000000
-62.41650009 7.68526983 81.38310242 0.000000
-68.10240173 14.07870007 84.34030151 0.000000
-68.06040192 14.10190010 84.32949829 0.000000
-62.21860123 7.88641977 81.34220123 0.000000
-65.04219818 11.03989983 82.80840302 0.000000
-64.90019989 11.17169952 82.80940247 0.000000
-76.76370239 9.19635010 84.35859680 0.000000
-76.07769775 9.63449955 84.34719849 0.000000
-64.80639648 11.20940018 82.76599884 0.000000
-72.72619629 2.03727007 81.35659790 0.000000
-76.41510010 9.81320953 84.35800171 0.000000
-65.76699829 11.90579987 82.91419983 0.000000
-75.40799713 10.74909973 84.29389954 0.000000
-65.64810181 11.98120022 82.88369751 0.000000
-65.54499817 12.13239956 82.89140320 0.000000
-69.59829712 14.58520031 84.34059906 0.000000
-75.79840088 11.00090027 84.35369873 0.000000
-77.44039917 4.92523003 82.76100159 0.000000
-69.79360199 14.75800037 84.32009888 0.000000
-63.10940170 8.44211960 81.17099762 0.000000
-69.75589752 14.84280014 84.33339691 0.000000
-74.35939789 12.52079964 84.36180115 0.000000
-71.17220306 14.62040043 84.39830017 0.000000
-63.81760025 9.28199959 81.37370300 0.000000
-74.70259857 12.74030018 84.41459656 0.000000
-66.39620209 12.78170013 82.86080170 0.000000
-66.50450134 12.58699989 82.82070160 0.000000
-63.62060165 9.46595001 81.32460022 0.000000
-71.13099670 14.73320007 84.27819824 0.000000
-66.23719788 12.84119987 82.78140259 0.000000
-71.19580078 14.97169971 84.33119965 0.000000
-71.23449707 14.96700001 84.31069946 0.000000
-72.89969635 14.47329998 84.44120026 0.000000
-77.33470154 6.42940998 82.79519653 0.000000
-72.73809814 14.65810013 84.35829926 0.000000
-74.01339722 13.80150032 84.31279755 0.000000
-64.34690094 10.42459965 81.46779633 0.000000
-66.98400116 13.57040024 82.89900208 0.000000
-67.10649872 13.32960033 82.84700012 0.000000
-67.18190002 13.20390034 82.81950378 0.000000
-72.67310333 15.03680038 84.31529999 0.000000
-72.67810059 15.04139996 84.31559753 0.000000
-76.98000336 7.84114981 82.86949921 0.000000
-74.23130035 14.58430004 84.41680145 0.000000
-76.81300354 3.45480990 81.44090271 0.000000
-64.50920105 10.01609993 81.14820099 0.000000
-71.40200043 2.65889001 80.06210327 0.000000
-74.16449738 15.00609970 84.31629944 0.000000
-62.42190170 7.72444010 79.90249634 0.000000
-68.17410278 13.92780018 82.83589935 0.000000
-62.42449951 7.71375990 79.88939667 0.000000
-68.12380219 14.03779984 82.84369659 0.000000
-62.45660019 7.72590017 79.88240051 0.000000
-68.10579681 14.02729988 82.83170319 0.000000
-76.49520111 9.19019032 82.88559723 0.000000
-65.16159821 10.93120003 81.33229828 0.000000
-74.19190216 15.34029961 84.32219696 0.000000
-65.14089966 10.94909954 81.33100128 0.000000
-64.93810272 11.09679985 81.28140259 0.000000
-76.07499695 9.60793972 82.81559753 0.000000
-72.74790192 2.36048007 79.99729919 0.000000
-76.88069916 9.24615002 82.82219696 0.000000
-71.05740356 2.88961005 79.71499634 0.000000
-77.04489899 4.92358017 81.37180328 0.000000
-65.83070374 11.85569954 81.41480255 0.000000
-65.69499969 12.04940033 81.43280029 0.000000
-65.89759827 11.85789967 81.40160370 0.000000
-75.49790192 10.81550026 82.82289886 0.000000
-69.46309662 14.55949974 82.82289886 0.000000
-69.59030151 14.57330036 82.82779694 0.000000
-63.32329941 8.22859001 79.70919800 0.000000
-75.92089844 11.08349991 82.86289978 0.000000
-69.72750092 14.75930023 82.80709839 0.000000
-69.78029633 14.80070019 82.81809998 0.000000
-69.89849854 14.89159966 82.83889771 0.000000
-64.05539703 9.10869026 79.92299652 0.000000
-73.97609711 3.82541990 80.08920288 0.000000
-74.47460175 12.60709953 82.85119629 0.000000
-63.84680176 9.29242039 79.86100006 0.000000
-66.54479980 12.53750038 81.32579803 0.000000
-75.25219727 12.15040016 82.79119873 0.000000
-77.02149963 6.40523005 81.36519623 0.000000
-66.52010345 12.56060028 81.30359650 0.000000
-74.75330353 12.82299995 82.88410187 0.000000
-71.21189880 14.73079967 82.81259918 0.000000
-66.27230072 12.72879982 81.27850342 0.000000
-71.11340332 14.91289997 82.78269958 0.000000
-71.20729828 15.06760025 82.82250214 0.000000
-71.23359680 15.03520012 82.81230164 0.000000
-73.98999786 13.76080036 82.83219910 0.000000
-74.34960175 2.93297005 79.59130096 0.000000
-72.64920044 14.75290012 82.81030273 0.000000
-67.14720154 13.33619976 81.36350250 0.000000
-67.07150269 13.52530003 81.38330078 0.000000
-67.12249756 13.24880028 81.30139923 0.000000
-72.50029755 14.86670017 82.77239990 0.000000
-76.86940002 7.87116003 81.39230347 0.000000
-72.69020081 15.12959957 82.82260132 0.000000
-72.69470215 15.24960041 82.81130219 0.000000
-62.81650162 7.49240017 78.46050262 0.000000
-68.27970123 13.78419971 81.33820343 0.000000
-62.57189941 7.57814980 78.39579773 0.000000
-65.35769653 10.77490044 79.86019897 0.000000
-74.19049835 15.22399998 82.82369995 0.000000
-68.13700104 13.97249985 81.32990265 0.000000
-65.21250153 10.89270020 79.84089661 0.000000
-65.10500336 10.97029972 79.82610321 0.000000
-74.18000031 15.42420006 82.83640289 0.000000
-68.03350067 14.14879990 81.31030273 0.000000
-69.89550018 3.88859010 78.48370361 0.000000
-76.57630157 5.01624012 80.01940155 0.000000
-76.18080139 9.59006023 81.26010132 0.000000
-71.14289856 3.24835992 78.29100037 0.000000
-65.82129669 11.96160030 79.92189789 0.000000
-63.57550049 8.01366997 78.30660248 0.000000
-63.30879974 8.18665028 78.28119659 0.000000
-69.58080292 14.54059982 81.36080170 0.000000
-75.56410217 10.86439991 81.33350372 0.000000
-69.50710297 14.54969978 81.31439972 0.000000
-69.80290222 14.78919983 81.30069733 0.000000
-76.71060181 6.47112989 79.96790314 0.000000
-72.65309906 3.04684997 78.18280029 0.000000
-64.26830292 8.98435020 78.44290161 0.000000
-75.05500031 12.07699966 81.32569885 0.000000
-74.55860138 12.64039993 81.36199951 0.000000
-64.07199860 9.16357040 78.38169861 0.000000
-66.65789795 12.43840027 79.83409882 0.000000
-66.57759857 12.51920033 79.83209991 0.000000
-66.41169739 12.61579990 79.80210114 0.000000
-74.04149628 3.56184006 78.43849945 0.000000
-74.83509827 12.86649990 81.37750244 0.000000
-71.22799683 14.79329967 81.25109863 0.000000
-74.20010376 3.40148997 78.32360077 0.000000
-71.24079895 15.07429981 81.32099915 0.000000
-71.21060181 15.11849976 81.32129669 0.000000
-71.13020325 15.06120014 81.28739929 0.000000
-73.03530121 14.28390026 81.39250183 0.000000
-73.80410004 13.62390041 81.28949738 0.000000
-75.15589905 3.72159004 78.51889801 0.000000
-73.84940338 13.68449974 81.27030182 0.000000
-76.56500244 7.87923002 79.96489716 0.000000
-67.27590179 13.25000000 79.88590240 0.000000
-72.58470154 14.74450016 81.29750061 0.000000
-67.23549652 13.32069969 79.87310028 0.000000
-74.22720337 13.96529961 81.34030151 0.000000
-64.81359863 9.68346977 78.27359772 0.000000
-64.55599976 9.82592010 78.25730133 0.000000
-72.57230377 15.12320042 81.29869843 0.000000
-72.69450378 15.28079987 81.33010101 0.000000
-72.69490051 15.33979988 81.33180237 0.000000
-74.27439880 14.63770008 81.37650299 0.000000
-68.33550262 13.68439960 79.83879852 0.000000
-74.17859650 15.14589977 81.31369781 0.000000
-68.19460297 13.90019989 79.83640289 0.000000
-65.45989990 10.73610020 78.36820221 0.000000
-68.13529968 13.99160004 79.83390045 0.000000
-65.32599640 10.80679989 78.34680176 0.000000
-65.26660156 10.86419964 78.34449768 0.000000
-74.60050201 4.53767014 78.08509827 0.000000
-74.13839722 15.62080002 81.34929657 0.000000
-69.80069733 4.03567982 77.00810242 0.000000
-76.06099701 9.50916958 79.77729797 0.000000
-75.77120209 4.88543987 78.30960083 0.000000
-63.77890015 7.84414005 76.85559845 0.000000
-71.22350311 3.69044995 76.94010162 0.000000
-63.60329819 7.96420002 76.82460022 0.000000
-75.58910370 15.86680031 81.40679932 0.000000
-75.52749634 10.83950043 79.83029938 0.000000
-69.54340363 14.48740005 79.84059906 0.000000
-76.00379944 11.07540035 79.85929871 0.000000
-72.65850067 3.64965010 76.93049622 0.000000
-69.87409973 14.83590031 79.80110168 0.000000
-69.80339813 14.83759975 79.78019714 0.000000
-74.61239624 12.63379955 79.87740326 0.000000
-64.21739960 9.07021999 76.87550354 0.000000
-66.71569824 12.38879967 78.34040070 0.000000
-76.13870239 6.23139000 78.17890167 0.000000
-66.64160156 12.44699955 78.33450317 0.000000
-74.95279694 12.04440022 79.72959900 0.000000
-74.71289825 12.70870018 79.88420105 0.000000
-66.54959869 12.52649975 78.33339691 0.000000
-74.18340302 3.73978996 77.01480103 0.000000
-75.40979767 12.27530003 79.81089783 0.000000
-71.21749878 14.88860035 79.78079987 0.000000
-71.23120117 15.14540005 79.81300354 0.000000
-71.21559906 15.19340038 79.82460022 0.000000
-74.00779724 13.78579998 79.81199646 0.000000
-74.17810059 13.91730022 79.83589935 0.000000
-64.87860107 9.59111977 76.79370117 0.000000
-64.69470215 9.70571041 76.79460144 0.000000
-72.51390076 14.89830017 79.80300140 0.000000
-74.29949951 14.01650047 79.85459900 0.000000
-72.57929993 15.18200016 79.81009674 0.000000
-76.16929626 7.96280003 78.23600006 0.000000
-72.68949890 15.33570004 79.82920074 0.000000
-72.68229675 15.40590000 79.83439636 0.000000
-72.88919830 4.36824989 76.49130249 0.000000
-63.78189850 6.39926004 75.36289978 0.000000
-74.25119781 4.86871004 76.80020142 0.000000
-74.25119781 4.82832003 76.78269958 0.000000
-75.22630310 5.13514996 76.98149872 0.000000
-68.20480347 13.89640045 78.33930206 0.000000
-68.19689941 13.89910030 78.33619690 0.000000
-65.40850067 10.78180027 76.84980011 0.000000
-65.52330017 10.70670033 76.84030151 0.000000
-65.50910187 10.74250031 76.84750366 0.000000
-74.16780090 15.52420044 79.85140228 0.000000
-75.88649750 9.46286964 78.30840302 0.000000
-74.14469910 15.65260029 79.86289978 0.000000
-74.01490021 15.91670036 79.90499878 0.000000
-69.47290039 14.45240021 78.43810272 0.000000
-65.99810028 11.36170006 76.84059906 0.000000
-75.67120361 15.58269978 79.87079620 0.000000
-63.90079880 7.82273006 75.35559845 0.000000
-69.38150024 14.61849976 78.38379669 0.000000
-75.58650208 10.88910007 78.33889771 0.000000
-69.72119904 4.21664000 75.07029724 0.000000
-75.73529816 6.39238024 76.81020355 0.000000
-74.92949677 5.87502003 76.49829865 0.000000
-69.84059906 14.88749981 78.26989746 0.000000
-66.72679901 12.38179970 76.83560181 0.000000
-66.70670319 12.39939976 76.83540344 0.000000
-64.29570007 9.03785992 75.35720062 0.000000
-75.09660339 12.21310043 78.26290131 0.000000
-71.14990234 4.27631998 75.11959839 0.000000
-71.32450104 4.51623011 75.12180328 0.000000
-71.24859619 15.05679989 78.28639984 0.000000
-71.20570374 15.29119968 78.32089996 0.000000
-71.19539642 15.33710003 78.32640076 0.000000
-64.59829712 9.85284996 75.39749908 0.000000
-65.01080322 9.50716019 75.32689667 0.000000
-74.14569855 13.89719963 78.33190155 0.000000
-74.17510223 13.91460037 78.33529663 0.000000
-64.75180054 9.67201042 75.32070160 0.000000
-72.72090149 4.84224987 75.29039764 0.000000
-75.86789703 7.91459990 76.79340363 0.000000
-74.45839691 14.10690022 78.37120056 0.000000
-72.77580261 4.40309000 75.11009979 0.000000
-72.67479706 15.14809990 78.29109955 0.000000
-72.61270142 15.22130013 78.29540253 0.000000
-73.96890259 5.04405022 75.41950226 0.000000
-74.06330109 5.07990980 75.44249725 0.000000
-72.65630341 15.57989979 78.35949707 0.000000
-72.65319824 15.57919979 78.35749817 0.000000
-64.36940002 6.39800978 74.00900269 0.000000
-73.74440002 15.03499985 78.24289703 0.000000
-68.11710358 13.99839973 76.84690094 0.000000
-68.12519836 13.99520016 76.84660339 0.000000
-75.73110199 9.42271042 76.82759857 0.000000
-65.54879761 10.70820045 75.34249878 0.000000
-65.45919800 10.74510002 75.33609772 0.000000
-65.47579956 10.77019978 75.33889771 0.000000
-74.14289856 15.70530033 78.39309692 0.000000
-74.13610077 15.75539970 78.38800049 0.000000
-64.06069946 7.76550007 73.86450195 0.000000
-65.99040222 11.33819962 75.29640198 0.000000
-75.46579742 10.87510014 76.82890320 0.000000
-69.89070129 4.41416979 73.60150146 0.000000
-69.84799957 15.05239964 76.78140259 0.000000
-66.61940002 12.47270012 75.34200287 0.000000
-66.64260101 12.45149994 75.33889771 0.000000
-71.17759705 4.92488003 73.83989716 0.000000
-75.15809631 12.27980042 76.80280304 0.000000
-71.31320190 4.64949989 73.69989777 0.000000
-72.46250153 5.30929995 74.04820251 0.000000
-75.50869751 7.94147015 75.38449860 0.000000
-71.17269897 15.45440006 76.84249878 0.000000
-72.58570099 5.06704998 73.92500305 0.000000
-64.96559906 9.49913979 73.81420135 0.000000
-64.85109711 9.60908031 73.82289886 0.000000
-72.68599701 4.86216021 73.80780029 0.000000
-74.24310303 13.96650028 76.84449768 0.000000
-74.58840179 14.24429989 76.92410278 0.000000
-67.36219788 13.30700016 75.26059723 0.000000
-72.58850098 15.28260040 76.81169891 0.000000
-75.16169739 13.53629971 76.73750305 0.000000
-72.67610168 15.45499992 76.84120178 0.000000
-72.66770172 15.65209961 76.86779785 0.000000
-72.63069916 15.76840019 76.89170074 0.000000
-73.89389801 15.09840012 76.78130341 0.000000
-75.56690216 9.41668987 75.33910370 0.000000
-68.09140015 14.00459957 75.34249878 0.000000
-68.05300140 14.08170033 75.35379791 0.000000
-74.17900085 15.31040001 76.82360077 0.000000
-65.69539642 10.67290020 73.86080170 0.000000
-65.44499969 10.76179981 73.84079742 0.000000
-65.72070313 10.66059971 73.84970093 0.000000
-74.12100220 15.90380001 76.92009735 0.000000
-74.11699677 15.93309975 76.91580200 0.000000
-74.04270172 16.10989952 76.91100311 0.000000
-73.00720215 5.89410019 73.52780151 0.000000
-74.11139679 6.49599981 73.87870026 0.000000
-65.94889832 11.39640045 73.86620331 0.000000
-65.93849945 11.43889999 73.85350037 0.000000
-74.18560028 6.41087008 73.83070374 0.000000
-65.97139740 11.31280041 73.79640198 0.000000
-74.31250000 6.32591009 73.77239990 0.000000
-68.78089905 14.69200039 75.27929688 0.000000
-75.44560242 10.89480019 75.33679962 0.000000
-69.78199768 5.38961983 72.54720306 0.000000
-64.67359924 8.06031990 72.24259949 0.000000
-69.76860046 15.24250031 75.31120300 0.000000
-66.59719849 12.48439980 73.83950043 0.000000
-71.17919922 5.22217989 72.45870209 0.000000
-75.28690338 12.37279987 75.32659912 0.000000
-75.27790070 7.96478987 73.90299988 0.000000
-75.93890381 12.57999992 75.38439941 0.000000
-71.13469696 15.62950039 75.37329865 0.000000
-65.15080261 9.42784023 72.33090210 0.000000
-65.24030304 9.40905952 72.33039856 0.000000
-74.56600189 14.08689976 75.38710022 0.000000
-67.29060364 13.37969971 73.77010345 0.000000
-74.82980347 14.34280014 75.42520142 0.000000
-67.28309631 13.38879967 73.75240326 0.000000
-72.68299866 15.44900036 75.33889771 0.000000
-74.08249664 5.24066019 72.46499634 0.000000
-72.69309998 15.69470024 75.37539673 0.000000
-72.60959625 15.93599987 75.41429901 0.000000
-75.44840240 9.40460968 73.85459900 0.000000
-65.76129913 10.67879963 72.42169952 0.000000
-67.98619843 14.10779953 73.86530304 0.000000
-67.95839691 14.13669968 73.86350250 0.000000
-65.59960175 10.71619987 72.37270355 0.000000
-74.16809845 15.28839970 75.32610321 0.000000
-73.71710205 6.86309004 72.64320374 0.000000
-74.24140167 15.45489979 75.34429932 0.000000
-72.77870178 6.28218985 72.26799774 0.000000
-74.12310028 15.99030018 75.46160126 0.000000
-73.86430359 6.61534023 72.51920319 0.000000
-65.43109894 6.44150019 70.91459656 0.000000
-65.93129730 11.37339973 72.27839661 0.000000
-75.43800354 10.88679981 73.84179688 0.000000
-68.69280243 14.81089973 73.76969910 0.000000
-68.72010040 14.85289955 73.75839996 0.000000
-65.92050171 11.82040024 72.31790161 0.000000
-65.14980316 7.92314005 70.82879639 0.000000
-69.68890381 15.40569973 73.83380127 0.000000
-75.74369812 16.47260094 75.24569702 0.000000
-66.64569855 12.44379997 72.33760071 0.000000
-66.63310242 12.45110035 72.33560181 0.000000
-74.26959991 7.85535002 72.29650116 0.000000
-75.34179688 12.41160011 73.82649994 0.000000
-75.51999664 12.37090015 73.84179688 0.000000
-69.63629913 6.30068016 70.79329681 0.000000
-71.10610199 15.83259964 73.91840363 0.000000
-65.38980103 9.36394024 70.87310028 0.000000
-74.96109772 13.68939972 73.79910278 0.000000
-67.28359985 13.42949963 72.29579926 0.000000
-67.23000336 13.44600010 72.28330231 0.000000
-74.55319977 14.28160000 73.86389923 0.000000
-71.04190063 5.96051979 70.68949890 0.000000
-75.38289642 13.74670029 73.80220032 0.000000
-72.67649841 15.98980045 73.92240143 0.000000
-75.24490356 9.44172955 72.36599731 0.000000
-65.80429840 10.68900013 70.93810272 0.000000
-67.88200378 14.21119976 72.37529755 0.000000
-67.95149994 14.14169979 72.36460114 0.000000
-65.86799622 6.45515013 69.59400177 0.000000
-74.21880341 15.45530033 73.84349823 0.000000
-72.75360107 16.18630028 73.70819855 0.000000
-74.25260162 6.23402977 70.73110199 0.000000
-75.30249786 10.93669987 72.35150146 0.000000
-74.26069641 16.33959961 73.74240112 0.000000
-68.55519867 14.93949986 72.26470184 0.000000
-68.59069824 14.87240028 72.23880005 0.000000
-75.84690094 10.92240047 72.33650208 0.000000
-68.32039642 7.03397989 69.70130157 0.000000
-65.59420013 7.88208008 69.45439911 0.000000
-74.07559967 7.97008991 70.87580109 0.000000
-69.67420197 15.43449974 72.33820343 0.000000
-69.58599854 15.56960011 72.35880280 0.000000
-66.58879852 12.48670006 70.83779907 0.000000
-75.48449707 17.32729912 73.89389801 0.000000
-75.32009888 12.37749958 72.33809662 0.000000
-75.33609772 12.41069984 72.32959747 0.000000
-70.04920197 7.00929022 69.54350281 0.000000
-65.57209778 9.30525017 69.40570068 0.000000
-71.05799866 16.05470085 72.45929718 0.000000
-67.20729828 13.49489975 70.78089905 0.000000
-74.64530182 14.30850029 72.38400269 0.000000
-71.22010040 6.50549984 69.35880280 0.000000
-67.31289673 13.48960018 70.76399994 0.000000
-68.07890320 7.35589981 69.01450348 0.000000
-75.47280121 13.74359989 72.29620361 0.000000
-74.72019958 9.31645012 70.73780060 0.000000
-67.80010223 14.22939968 70.87619781 0.000000
-67.82369995 14.24240017 70.87930298 0.000000
-74.02790070 15.23740005 72.29370117 0.000000
-69.40399933 7.45333004 69.06739807 0.000000
-72.68409729 6.36360979 69.31250000 0.000000
-74.27429962 15.52060032 72.36499786 0.000000
-72.70429993 16.27820015 72.24459839 0.000000
-73.92759705 6.91019011 69.61689758 0.000000
-72.74289703 16.37450027 72.23979950 0.000000
-66.21949768 11.06250000 69.27220154 0.000000
-75.24299622 10.96039963 70.87129974 0.000000
-68.57510376 15.03649998 70.79060364 0.000000
-74.23100281 16.52949905 72.27760315 0.000000
-68.50659943 15.05189991 70.77519989 0.000000
-74.22560120 16.66460037 72.29949951 0.000000
-74.20500183 16.81369972 72.31929779 0.000000
-74.19270325 16.88529968 72.33270264 0.000000
-69.57129669 15.68840027 70.88259888 0.000000
-66.52410126 12.52680016 69.35739899 0.000000
-66.76439667 12.37399960 69.33899689 0.000000
-75.59929657 17.17289925 72.37339783 0.000000
-75.36360168 12.42910004 70.88200378 0.000000
-75.44210052 12.42150021 70.83709717 0.000000
-68.33670044 8.25846958 68.02249908 0.000000
-74.11440277 9.45744038 69.37300110 0.000000
-67.30049896 13.52799988 69.34220123 0.000000
-71.33360291 6.86341000 68.03780365 0.000000
-74.89289856 14.35919952 70.95690155 0.000000
-67.18280029 13.52719975 69.29250336 0.000000
-66.28330231 9.45357990 67.74780273 0.000000
-66.31980133 9.43902969 67.74410248 0.000000
-75.80519867 14.00319958 70.85449982 0.000000
-71.26830292 16.35950089 70.73040009 0.000000
-69.81420135 8.07067966 67.89600372 0.000000
-67.65010071 14.41349983 69.41400146 0.000000
-67.81819916 14.19820023 69.35479736 0.000000
-72.64910126 6.92417002 68.01629639 0.000000
-74.13919830 15.38109970 70.83100128 0.000000
-74.38300323 15.68350029 70.89250183 0.000000
-72.70729828 16.55179977 70.76730347 0.000000
-70.83850098 7.36620998 67.62000275 0.000000
-66.35140228 11.04489994 67.80030060 0.000000
-66.43250275 10.98239994 67.79389954 0.000000
-68.49469757 15.13249969 69.31809998 0.000000
-74.79070282 10.76490021 69.13870239 0.000000
-68.35350037 15.21310043 69.30000305 0.000000
-74.20200348 16.75000000 70.81159973 0.000000
-74.19689941 16.85869980 70.82730103 0.000000
-74.18609619 16.88899994 70.83119965 0.000000
-74.17220306 16.95490074 70.84040070 0.000000
-69.35919952 15.84090042 69.40329742 0.000000
-66.89640045 12.34179974 67.86109924 0.000000
-66.80909729 12.35620022 67.84539795 0.000000
-70.00099945 16.27409935 69.18740082 0.000000
-67.40419769 13.56359959 67.87709808 0.000000
-75.39170074 13.79839993 69.28530121 0.000000
-66.81279755 9.41652012 66.37799835 0.000000
-74.69300079 14.18340015 69.26770020 0.000000
-75.55629730 13.86740017 69.31300354 0.000000
-71.25810242 16.57390022 69.25859833 0.000000
-67.73850250 14.16899967 67.86119843 0.000000
-70.16380310 8.41942978 66.48590088 0.000000
-72.68769836 16.80509949 69.31549835 0.000000
-72.68859863 16.82180023 69.31719971 0.000000
-71.13150024 7.79899979 66.27700043 0.000000
-74.32939911 10.89579964 67.77510071 0.000000
-66.77519989 10.89809990 66.35350037 0.000000
-68.37300110 15.24460030 67.80269623 0.000000
-74.18150330 16.90270042 69.33300018 0.000000
-72.66880035 7.64727020 66.18489838 0.000000
-67.11060333 12.30189991 66.41690063 0.000000
-69.34110260 16.01899910 67.95079803 0.000000
-66.92700195 12.30749989 66.35430145 0.000000
-75.62609863 17.17620087 69.37470245 0.000000
-74.87899780 12.37020016 67.65889740 0.000000
-69.86160278 16.50099945 67.74240112 0.000000
-67.40429688 9.46226978 65.10710144 0.000000
-74.50499725 13.93729973 67.71829987 0.000000
-75.72080231 13.93400002 67.83899689 0.000000
-70.20240021 8.61478996 65.13690186 0.000000
-71.19100189 16.85899925 67.82070160 0.000000
-67.77290344 14.11100006 66.34519958 0.000000
-71.34700012 8.29051971 65.03829956 0.000000
-67.89469910 9.34646988 64.68589783 0.000000
-72.66490173 17.09690094 67.87470245 0.000000
-67.36810303 10.87090015 65.00939941 0.000000
-72.66179657 17.08449936 67.86710358 0.000000
-69.51319885 9.16436958 64.73989868 0.000000
-72.68129730 8.21222973 64.97109985 0.000000
-68.41069794 15.26029968 66.32230377 0.000000
-74.16870117 17.01460075 67.85469818 0.000000
-74.06770325 12.46479988 66.41829681 0.000000
-69.18049622 16.12820053 66.46649933 0.000000
-67.28720093 12.26630020 64.93139648 0.000000
-70.90579987 8.70497990 64.46430206 0.000000
-75.63510132 17.29229927 67.90419769 0.000000
-72.74479675 8.72585964 64.47949982 0.000000
-69.73179626 16.77389908 66.29609680 0.000000
-74.49340057 13.91580009 66.22170258 0.000000
-71.15440369 17.14060020 66.39340210 0.000000
-67.80509949 14.08450031 64.82409668 0.000000
-68.45670319 9.49440002 63.48920059 0.000000
-72.64720154 17.38599968 66.44470215 0.000000
-68.31420135 15.34109974 64.82209778 0.000000
-73.88659668 12.30630016 64.86470032 0.000000
-74.13970184 17.35370064 66.42890167 0.000000
-67.92549896 10.89599991 63.25130081 0.000000
-71.06230164 9.15581989 63.20180130 0.000000
-72.67780304 9.15159035 63.18510056 0.000000
-67.65319824 12.54090023 63.25799942 0.000000
-67.58550262 12.61690044 63.23220062 0.000000
-69.62609863 17.18849945 64.90630341 0.000000
-71.12650299 17.46660042 64.98090363 0.000000
-67.98410034 13.97749996 63.31560135 0.000000
-70.00460052 9.71675014 62.10789871 0.000000
-72.80059814 17.27319908 64.83409882 0.000000
-68.34259796 15.32789993 63.33000183 0.000000
-74.16110229 16.87220001 64.83580017 0.000000
-68.55599976 10.99919987 61.97309875 0.000000
-71.23979950 9.64649010 61.95240021 0.000000
-72.70999908 17.75230026 64.64810181 0.000000
-72.61740112 9.77836990 62.01319885 0.000000
-74.24379730 17.83069992 64.69159698 0.000000
-68.95490265 10.68490028 61.46820068 0.000000
-68.19670105 12.41709995 61.83909988 0.000000
-69.54699707 17.16729927 63.39020157 0.000000
-75.72000122 18.32749939 64.81870270 0.000000
-68.18869781 13.91670036 61.83720016 0.000000
-72.68080139 16.95470047 63.34059906 0.000000
-71.20020294 17.95380020 63.20800018 0.000000
-68.45320129 15.29679966 61.85350037 0.000000
-74.18750000 17.00499916 63.34049988 0.000000
-72.69509888 18.08970070 63.24869919 0.000000
-69.51149750 10.84459972 60.25690079 0.000000
-74.16729736 17.97240067 63.22380066 0.000000
-68.83139801 16.45210075 61.78379822 0.000000
-68.72519684 12.50269985 60.50199890 0.000000
-69.38050079 17.34210014 61.93690109 0.000000
-75.70030212 18.08379936 63.27849960 0.000000
-70.96540070 10.65779972 60.11040115 0.000000
-72.69190216 10.65579987 60.23089981 0.000000
-68.38120270 13.88239956 60.35739899 0.000000
-74.13860321 11.01189995 60.38719940 0.000000
-69.95520020 17.81520081 61.67919922 0.000000
-75.89900208 15.48359966 61.82929993 0.000000
-71.20320129 18.21529961 61.77090073 0.000000
-68.66280365 15.27729988 60.38109970 0.000000
-72.68070221 18.31240082 61.81039810 0.000000
-74.46489716 12.06169987 60.18799973 0.000000
-70.13829803 11.22900009 59.13059998 0.000000
-68.87779999 16.48439980 60.31129837 0.000000
-74.18019867 18.34819984 61.81700134 0.000000
-71.29879761 11.12670040 58.98500061 0.000000
-69.36869812 17.25550079 60.40560150 0.000000
-75.67859650 18.43950081 61.83909988 0.000000
-69.55460358 12.37279987 58.78269958 0.000000
-72.68800354 11.13780022 58.94599915 0.000000
-68.78459930 13.90699959 58.92760086 0.000000
-73.87969971 11.64589977 59.11890030 0.000000
-69.92849731 18.02050018 60.27050018 0.000000
-71.18049622 18.42070007 60.33679962 0.000000
-68.72499847 15.28190041 58.88890076 0.000000
-72.68280029 18.68470001 60.40190125 0.000000
-71.59989929 11.55309963 57.81800079 0.000000
-74.16110229 18.71780014 60.41559982 0.000000
-69.20670319 17.45199966 58.91780090 0.000000
-75.52850342 19.05060005 60.48699951 0.000000
-70.05650330 12.58209991 57.51630020 0.000000
-75.74759674 13.86769962 58.81430054 0.000000
-69.91249847 18.08320045 58.79430008 0.000000
-70.89189911 12.19270039 57.14110184 0.000000
-69.48269653 13.89340019 57.28129959 0.000000
-71.16149902 18.70240021 58.93719864 0.000000
-76.18699646 15.15880013 58.75880051 0.000000
-72.70590210 12.03020000 57.15900040 0.000000
-74.08419800 12.57590008 57.39739990 0.000000
-72.65570068 18.97419930 58.97380066 0.000000
-74.16059875 19.04890060 58.99449921 0.000000
-74.68859863 13.27709961 57.06230164 0.000000
-75.50530243 14.07040024 57.37570190 0.000000
-71.37830353 12.83090019 56.08539963 0.000000
-75.78959656 19.50410080 58.74100113 0.000000
-75.77519989 19.52029991 58.73780060 0.000000
-69.96779633 14.00139999 55.92720032 0.000000
-76.00630188 15.23359966 57.35070038 0.000000
-72.70069885 12.49940014 55.88330078 0.000000
-77.22470093 19.64319992 58.76530075 0.000000
-73.86849976 13.00819969 56.05310059 0.000000
-69.15619659 15.51630020 55.76520157 0.000000
-71.20700073 19.22850037 57.15610123 0.000000
-72.71279907 19.38839912 57.18650055 0.000000
-74.37560272 13.55500031 55.69440079 0.000000
-75.46690369 14.20049953 55.88219833 0.000000
-74.18499756 19.42760086 57.20249939 0.000000
-75.71869659 19.67790031 57.26919937 0.000000
-72.78939819 13.01309967 54.61500168 0.000000
-75.96759796 15.25459957 55.82400131 0.000000
-77.12149811 20.16370010 57.39709854 0.000000
-69.91290283 15.43169975 54.38449860 0.000000
-71.21610260 19.58939934 55.75139999 0.000000
-72.46720123 13.48820019 54.04650116 0.000000
-74.20339966 13.86019993 54.31050110 0.000000
-72.68520355 19.73970032 55.78089905 0.000000
-74.18190002 19.82939911 55.80759811 0.000000
-69.50039673 18.67370033 54.39360046 0.000000
-75.65609741 20.06739998 55.87120056 0.000000
-75.87180328 15.25139999 54.29050064 0.000000
-77.05809784 20.44680023 55.95259857 0.000000
-72.66339874 13.88140011 52.81259918 0.000000
-71.17929840 19.99029922 54.35400009 0.000000
-74.17929840 14.00879955 52.88130188 0.000000
-72.67639923 20.09309959 54.38750076 0.000000
-69.66040039 16.92350006 52.83459854 0.000000
-74.19129944 20.12140083 54.39870071 0.000000
-75.63059998 20.33270073 54.45059967 0.000000
-75.62920380 20.34140015 54.44200134 0.000000
-75.65270233 15.44960022 52.84489822 0.000000
-72.85050201 14.46630001 51.61320114 0.000000
-71.14129639 20.26379967 52.91910172 0.000000
-72.67250061 20.46069908 52.99909973 0.000000
-70.31289673 16.91629982 51.45059967 0.000000
-72.51959991 15.03880024 51.13090134 0.000000
-74.18170166 20.58390045 53.05289841 0.000000
-70.65059662 16.88109970 51.19869995 0.000000
-69.59519958 18.48520088 51.33800125 0.000000
-74.07399750 14.76550007 50.98310089 0.000000
-75.59410095 15.55020046 51.37730026 0.000000
-70.05539703 19.47839928 51.24649811 0.000000
-75.69120026 20.67930031 52.62080002 0.000000
-75.72799683 20.80360031 52.64530182 0.000000
-77.23120117 21.13450050 52.76499939 0.000000
-77.24220276 21.04319954 52.72019958 0.000000
-72.71199799 15.46080017 49.86159897 0.000000
-71.24469757 20.83909988 51.17839813 0.000000
-74.16899872 15.29389954 49.77149963 0.000000
-72.69809723 20.97069931 51.20759964 0.000000
-72.08570099 16.17849922 49.53039932 0.000000
-75.60260010 15.66259956 49.91820145 0.000000
-74.18730164 21.07309914 51.22180176 0.000000
-70.02590179 19.55139923 49.77550125 0.000000
-75.67060089 21.05629921 51.23410034 0.000000
-75.67420197 21.04940033 51.22409821 0.000000
-77.18879700 21.35499954 51.31809998 0.000000
-77.18840027 21.22570038 51.27659988 0.000000
-72.99510193 15.98009968 48.67729950 0.000000
-71.19629669 21.27589989 49.79560089 0.000000
-74.22949982 15.80580044 48.55580139 0.000000
-72.68119812 21.51199913 49.86669922 0.000000
-75.56060028 16.03860092 48.62659836 0.000000
-72.40799713 16.62689972 48.12810135 0.000000
-74.18049622 21.50970078 49.86529922 0.000000
-75.68090057 21.52790070 49.87070084 0.000000
-75.68019867 21.41169930 49.83390045 0.000000
-74.00399780 16.28890038 47.92419815 0.000000
-75.81700134 16.42309952 48.09989929 0.000000
-77.15499878 21.70660019 49.91719818 0.000000
-77.14209747 21.74300003 49.92210007 0.000000
-71.15100098 21.58629990 48.39509964 0.000000
-72.67250061 21.85140038 48.48210144 0.000000
-74.19300079 21.91990089 48.49349976 0.000000
-74.18229675 21.90999985 48.47629929 0.000000
-74.15139771 16.79579926 46.77370071 0.000000
-75.68890381 21.94009972 48.50920105 0.000000
-75.70909882 21.85470009 48.47840118 0.000000
-75.68129730 16.91519928 46.83440018 0.000000
-77.10949707 22.12109947 48.54449844 0.000000
-72.70790100 22.35639954 46.65530014 0.000000
-75.52970123 17.45969963 45.56620026 0.000000
-74.19159698 22.43180084 46.69689941 0.000000
-73.77500153 17.67830086 45.00239944 0.000000
-75.65589905 22.44350052 46.70660019 0.000000
-75.65100098 22.42329979 46.68669891 0.000000
-75.89219666 17.79619980 45.08229828 0.000000
-77.19439697 22.51539993 46.72679901 0.000000
-77.19110107 22.46960068 46.70669937 0.000000
-77.14949799 18.47340012 45.35950089 0.000000
-71.33860016 22.36989975 45.17399979 0.000000
-72.68979645 22.78709984 45.29330063 0.000000
-74.18289948 22.83460045 45.31240082 0.000000
-71.02760315 19.98069954 43.82979965 0.000000
-74.12560272 18.20680046 43.70750046 0.000000
-75.67890167 22.86580086 45.31990051 0.000000
-75.73639679 18.24900055 43.77439880 0.000000
-71.06040192 21.55450058 43.85940170 0.000000
-77.17890167 22.83959961 45.31299973 0.000000
-76.94670105 18.80550003 43.98289871 0.000000
-78.67410278 23.03549957 45.37020111 0.000000
-71.41670227 22.39010048 43.70080185 0.000000
-72.66629791 23.18280029 43.91510010 0.000000
-77.55090332 19.45409966 43.63830185 0.000000
-74.17579651 23.27370071 43.94179916 0.000000
-74.20809937 23.34049988 43.95890045 0.000000
-74.19080353 18.59410095 42.42530060 0.000000
-75.68399811 23.30800056 43.95719910 0.000000
-75.71009827 23.25160027 43.93519974 0.000000
-72.69920349 19.92779922 42.34280014 0.000000
-75.65200043 18.71389961 42.48789978 0.000000
-71.07980347 21.51670074 42.34180069 0.000000
-77.16889954 23.36720085 43.97150040 0.000000
-77.18139648 22.92280006 43.83750153 0.000000
-73.74430084 19.47229958 41.97409821 0.000000
-78.64710236 23.46820068 44.01620102 0.000000
-71.57330322 22.37719917 42.20890045 0.000000
-77.23580170 19.85149956 42.31340027 0.000000
-72.55960083 23.24790001 42.41790009 0.000000
-74.11499786 23.57360077 42.54700089 0.000000
-74.04419708 19.74130058 40.72299957 0.000000
-75.68679810 23.88170052 42.17119980 0.000000
-75.76029968 19.40390015 40.59560013 0.000000
-71.51719666 22.51339912 40.75619888 0.000000
-77.19480133 23.92270088 42.16989899 0.000000
-78.68789673 23.93639946 42.18280029 0.000000
-77.62349701 20.96540070 40.68360138 0.000000
-72.87490082 23.84239960 40.65779877 0.000000
-74.18060303 24.26499939 40.78089905 0.000000
-74.27230072 20.05769920 39.41139984 0.000000
-75.68199921 24.30839920 40.79669952 0.000000
-75.68129730 19.95649910 39.35380173 0.000000
-71.70880127 22.47419930 39.26409912 0.000000
-77.18099976 24.40970039 40.83319855 0.000000
-78.67209625 24.21599960 40.76689911 0.000000
-78.66829681 24.20319939 40.75590134 0.000000
-77.34059906 21.22240067 39.29169846 0.000000
-72.70500183 24.32379913 39.30609894 0.000000
-74.17700195 24.68899918 39.42679977 0.000000
-75.67289734 24.68650055 39.42240143 0.000000
-77.19460297 24.72019958 39.43790054 0.000000
-78.51080322 23.99360085 39.21350098 0.000000
-78.68560028 24.65859985 39.41699982 0.000000
-75.43440247 20.72159958 37.39730072 0.000000
-77.22180176 21.33699989 37.80659866 0.000000
-77.25140381 25.03879929 38.04010010 0.000000
-75.66310120 25.35589981 37.65179825 0.000000
-78.71589661 25.05380058 38.06439972 0.000000
-75.64739990 21.27799988 36.25669861 0.000000
-76.99909973 21.76630020 36.44250107 0.000000
-75.66419983 21.82329941 35.01390076 0.000000
-76.96230316 22.07040024 35.11780167 0.000000
-79.88829803 24.02989960 36.17499924 0.000000
-78.63999939 25.56769943 36.23210144 0.000000
-77.38030243 22.48810005 34.66460037 0.000000
-80.22740173 24.48530006 34.86640167 0.000000
-78.68840027 25.98570061 34.85879898 0.000000
-75.63909912 22.72850037 33.23730087 0.000000
-77.20580292 22.84309959 33.30810165 0.000000
-77.04199982 23.37989998 32.02679825 0.000000
-78.27230072 24.91080093 30.42799950 0.000000
-77.12899780 24.61580086 28.90670013 0.000000
-77.08979797 25.01189995 27.55150032 0.000000
-87.70330048 47.08069992 -31.12269974 1.000000
-84.73449707 46.77220154 -31.21019936 1.000000
-84.69660187 46.88029861 -32.67480087 1.000000
-83.35510254 45.30879974 -32.67969894 1.000000
-83.22339630 45.37580109 -31.16769981 1.000000
-87.68109894 45.42570114 -25.16169930 1.000000
-87.66230011 46.77270126 -29.70770073 1.000000
-87.64949799 46.42390060 -28.31360054 1.000000
-87.63140106 46.08240128 -26.51549911 1.000000
-87.56939697 44.84170151 -23.84659958 1.000000
-87.51989746 42.56549835 -26.63100052 1.000000
-86.55760193 41.80360031 -26.78459930 1.000000
-86.28910065 40.76969910 -20.69059944 1.000000
-86.28679657 42.66040039 -17.57789993 1.000000
-86.27590179 46.49810028 -28.30500031 1.000000
-86.26280212 44.37049866 -22.00679970 1.000000
-86.23940277 44.77389908 -22.32819939 1.000000
-86.22309875 45.23099899 -23.71369934 1.000000
-86.20020294 40.88079834 -22.17499924 1.000000
-86.18599701 43.94380188 -20.65609932 1.000000
-86.17459869 46.93629837 -29.65940094 1.000000
-86.13690186 45.58409882 -25.11700058 1.000000
-86.13289642 43.57160187 -19.28210068 1.000000
-86.12390137 42.31819916 -16.19619942 1.000000
-86.10189819 41.04750061 -23.64329910 1.000000
-86.05000305 44.47330093 -20.51079941 1.000000
-86.03189850 42.01699829 -14.78579998 1.000000
-86.03160095 45.94689941 -26.51930046 1.000000
-85.79479980 39.74309921 -14.66390038 1.000000
-85.04640198 40.17229843 -22.31590080 1.000000
-84.95850372 46.17039871 -28.41220093 1.000000
-84.93009949 40.18999863 -20.89249992 1.000000
-84.88469696 40.51440048 -23.70560074 1.000000
-84.87770081 46.48400116 -29.80769920 1.000000
-84.87020111 44.91220093 -23.78380013 1.000000
-84.86190033 38.91400146 -16.26619911 1.000000
-84.81559753 41.37289810 -26.54459953 1.000000
-84.78070068 43.26940155 -17.85840034 1.000000
-84.77860260 42.97790146 -17.47920036 1.000000
-84.75710297 45.19749832 -25.22909927 1.000000
-84.73370361 41.24430084 -11.55469990 1.000000
-84.72499847 43.59820175 -19.25839996 1.000000
-84.70770264 41.41540146 -11.51379967 1.000000
-84.69570160 40.98949814 -10.13829994 1.000000
-84.68630219 42.06320190 -13.25240040 1.000000
-84.68520355 43.96770096 -20.64979935 1.000000
-84.67880249 42.45759964 -14.65219975 1.000000
-84.67269897 37.93239975 -11.66100025 1.000000
-84.66829681 42.50410080 -14.64290047 1.000000
-84.66349792 42.74819946 -16.09679985 1.000000
-84.64440155 45.51430130 -26.63640022 1.000000
-84.64389801 42.77980042 -16.05699921 1.000000
-84.64199829 44.15760040 -22.09819984 1.000000
-84.63610077 41.58470154 -11.45300007 1.000000
-84.62789917 44.08909988 -20.62350082 1.000000
-84.58260345 38.16450119 -13.11229992 1.000000
-84.52100372 44.34759903 -22.08180046 1.000000
-84.51879883 38.38959885 -14.56859970 1.000000
-84.51830292 45.93259811 -27.99469948 1.000000
-84.34269714 44.56430054 -23.46910095 1.000000
-83.51580048 44.72850037 -25.34020042 1.000000
-83.38230133 44.99810028 -26.77930069 1.000000
-83.37590027 43.57160187 -20.76619911 1.000000
-83.35079956 43.75379944 -22.26790047 1.000000
-83.32489777 37.46379852 -11.80949974 1.000000
-83.28800201 41.91939926 -13.28310013 1.000000
-83.25579834 42.19060135 -14.72609997 1.000000
-83.23760223 45.30149841 -28.19949913 1.000000
-83.22810364 43.82600021 -22.18610001 1.000000
-83.21240234 37.79299927 -13.19060040 1.000000
-83.18199921 41.07020187 -10.11740017 1.000000
-83.15550232 42.52629852 -16.13059998 1.000000
-83.15409851 45.46429825 -29.65040016 1.000000
-83.15180206 38.14870071 -14.61830044 1.000000
-83.13430023 44.00249863 -23.61680031 1.000000
-83.13420105 41.28530121 -11.54279995 1.000000
-83.05760193 38.31079865 -16.07449913 1.000000
-83.05269623 36.84389877 -10.07349968 1.000000
-83.04889679 42.74840164 -17.60120010 1.000000
-82.97190094 44.29639816 -25.07480049 1.000000
-82.93740082 42.87730026 -19.04059982 1.000000
-82.86180115 42.79430008 -20.54940033 1.000000
-82.83059692 44.51190186 -26.51420021 1.000000
-82.71820068 44.55960083 -27.96579933 1.000000
-82.60970306 42.91839981 -21.97879982 1.000000
-82.52259827 43.11280060 -21.82579994 1.000000
-84.60569763 40.53919983 -8.78991985 1.000000
-83.39749908 36.06710052 -5.72934008 1.000000
-83.24240112 36.28419876 -7.19507980 1.000000
-83.22100067 38.23270035 -1.04393995 1.000000
-83.18699646 40.67509842 -8.73791027 1.000000
-83.18659973 39.30789948 -4.19961023 1.000000
-83.17610168 39.69459915 -5.58018017 1.000000
-83.17209625 38.85810089 -2.87479997 1.000000
-83.15699768 37.83380127 0.31180799 1.000000
-83.13520050 36.52909851 -8.63782978 1.000000
-83.13099670 40.07880020 -6.92643023 1.000000
-83.03489685 35.17509842 -2.62235999 1.000000
-82.93139648 35.42119980 -4.04492998 1.000000
-89.51799774 47.40650177 -35.48289871 1.000000
-89.18209839 48.42219925 -37.16270065 1.000000
-88.76709747 47.78110123 -35.83769989 1.000000
-87.67870331 48.50859833 -35.63410187 1.000000
-87.67849731 48.15660095 -34.22539902 1.000000
-87.65869904 50.07379913 -40.11119843 1.000000
-87.64160156 48.91189957 -37.02510071 1.000000
-87.41480255 50.45830154 -41.46630096 1.000000
-86.32070160 49.75320053 -41.71720123 1.000000
-86.31759644 47.77149963 -32.84709930 1.000000
-86.28479767 48.06850052 -34.25939941 1.000000
-86.27639771 49.79100037 -40.18799973 1.000000
-86.19889832 51.41830063 -44.79019928 1.000000
-86.19809723 48.30080032 -35.69839859 1.000000
-86.14689636 47.22259903 -31.07019997 1.000000
-86.12799835 48.66809845 -37.09560013 1.000000
-86.05110168 48.84059906 -38.55939865 1.000000
-85.89119720 50.07820129 -43.09069824 1.000000
-84.98660278 48.29890060 -40.14149857 1.000000
-84.96029663 48.27579880 -41.67169952 1.000000
-84.82669830 47.97000122 -35.81090164 1.000000
-84.71679688 48.35499954 -38.67070007 1.000000
-84.70939636 48.32699966 -37.19110107 1.000000
-84.54940033 47.23460007 -34.05199814 1.000000
-84.44650269 47.19110107 -35.56809998 1.000000
-73.90959930 26.32789993 30.50130081 1.000000
-77.18589783 26.16659927 34.91780090 1.000000
-75.68470001 26.14789963 34.92219925 1.000000
-75.68229675 25.75709915 36.27999878 1.000000
-74.17639923 25.74699974 36.28279877 1.000000
-74.16259766 26.10180092 34.88959885 1.000000
-74.09390259 26.25359917 33.42570114 1.000000
-72.77600098 24.32850075 34.81570053 1.000000
-72.69779968 24.39399910 36.32989883 1.000000
-72.67980194 25.92119980 33.33689880 1.000000
-72.58529663 24.51980019 33.36029816 1.000000
-72.39790344 24.77120018 33.40079880 1.000000
-68.04429626 26.07649994 36.29410172 1.000000
-81.98789978 41.89419937 -16.27429962 1.000000
-81.93859863 41.83229828 -14.82240009 1.000000
-81.82140350 43.55619812 -23.75309944 1.000000
-81.79499817 43.72040176 -25.21459961 1.000000
-81.71579742 40.76839828 -10.21100044 1.000000
-81.65329742 41.01850128 -11.62730026 1.000000
-81.55280304 41.35079956 -13.03419971 1.000000
-81.48190308 41.21670151 -14.58920002 1.000000
-81.38819885 41.30149841 -16.07390022 1.000000
-81.31459808 41.27360153 -17.60510063 1.000000
-80.92939758 40.50139999 -16.26119995 1.000000
-80.79080200 40.36059952 -14.74779987 1.000000
-80.78359985 40.46799850 -16.17749977 1.000000
-80.36820221 39.32519913 -14.66160011 1.000000
-80.32289886 39.33440018 -14.67129993 1.000000
-80.19960022 39.39559937 -10.16749954 1.000000
-79.60800171 38.33480072 -10.13549995 1.000000
-81.98190308 34.25540161 0.21980600 1.000000
-81.84220123 34.41350174 -1.28047001 1.000000
-81.80690002 38.85210037 -2.82901001 1.000000
-81.72720337 39.18820190 -4.24037981 1.000000
-81.71309662 36.00939941 -7.30190992 1.000000
-81.71109772 40.55739975 -8.77565002 1.000000
-81.68540192 35.22719955 7.94317007 1.000000
-81.68090057 34.83499908 9.30128956 1.000000
-81.68080139 36.41730118 -8.66423988 1.000000
-81.65579987 38.01269913 -1.13101006 1.000000
-81.65560150 39.50619888 -5.64157009 1.000000
-81.62550354 35.21609879 -4.10506010 1.000000
-81.58750153 35.57680130 -5.48350000 1.000000
-81.57820129 39.93899918 -7.01506996 1.000000
-81.54409790 38.15719986 0.40818399 1.000000
-81.31030273 37.15879822 5.02730989 1.000000
-81.01159668 37.26689911 6.29090023 1.000000
-80.62709808 37.29069901 4.70487022 1.000000
-80.58830261 37.31230164 3.12840009 1.000000
-80.37650299 38.83589935 -4.33560991 1.000000
-80.36399841 39.04349899 -5.75583982 1.000000
-80.35340118 37.74969864 1.77699006 1.000000
-80.33660126 36.08869934 6.26855993 1.000000
-80.27279663 37.78390121 -1.19003999 1.000000
-80.27220154 39.29159927 -8.69256973 1.000000
-80.27179718 34.47539902 10.68509960 1.000000
-80.25589752 34.44499969 10.70429993 1.000000
-80.19380188 37.90639877 0.33376101 1.000000
-80.18599701 35.01110077 -4.13641024 1.000000
-80.18589783 36.45679855 -8.65005970 1.000000
-80.17169952 34.95220184 9.34566975 1.000000
-80.15290070 39.49950027 -7.14471006 1.000000
-80.14469910 36.48040009 4.84829998 1.000000
-80.13269806 35.06259918 9.38105011 1.000000
-80.10600281 38.05319977 -2.62701988 1.000000
-80.09819794 36.09560013 -7.26523018 1.000000
-80.01860046 35.34469986 7.97229004 1.000000
-80.00180054 38.33629990 -4.04327011 1.000000
-79.94480133 35.61510086 6.49737978 1.000000
-79.92469788 38.38769913 -4.04573011 1.000000
-79.91600037 36.77629852 3.44628000 1.000000
-79.90270233 36.84640121 1.98552001 1.000000
-79.79699707 38.63970184 -5.51958990 1.000000
-79.68650055 38.46780014 -7.05601978 1.000000
-79.60209656 38.41680145 -8.60577011 1.000000
-79.47470093 36.85380173 0.54298198 1.000000
-79.33760071 37.57509995 -8.68004990 1.000000
-79.13890076 35.86930084 4.73618984 1.000000
-79.10099792 37.54759979 -5.71502018 1.000000
-79.09420013 37.59329987 -7.17259979 1.000000
-79.03559875 37.51079941 -4.25358009 1.000000
-79.01309967 35.92390060 3.20582008 1.000000
-78.89109802 36.14619827 1.74029005 1.000000
-78.84349823 36.30770111 0.32276800 1.000000
-78.80979919 34.47669983 9.21642017 1.000000
-78.76110077 36.37179947 -4.15885019 1.000000
-78.70449829 34.85960007 7.82446003 1.000000
-78.67389679 36.42409897 -1.16278994 1.000000
-78.63870239 34.99789810 6.35337019 1.000000
-78.63659668 36.45059967 -2.65889001 1.000000
-78.51419830 33.82199860 10.93060017 1.000000
-78.43959808 35.17910004 4.87591982 1.000000
-78.31250000 35.35620117 3.45198989 1.000000
-78.14459991 35.48849869 1.98987997 1.000000
-77.99469757 35.56880188 0.43475500 1.000000
-77.97109985 35.43650055 -1.10010004 1.000000
-77.68450165 34.20669937 7.66919994 1.000000
-77.65429688 34.57009888 3.28013992 1.000000
-77.60970306 34.49110031 4.75713015 1.000000
-77.55740356 34.39820099 6.22788000 1.000000
-77.49610138 34.65100098 1.81779003 1.000000
-77.31140137 33.24580002 10.80099964 1.000000
