36.93209839 -18.19090080 -154.40699768 5.000000
38.92679977 -16.05990028 -152.53399658 5.000000
41.02579880 -17.42519951 -155.37199402 5.000000
33.06520081 -23.39649963 -159.36099243 5.000000
42.93209839 -18.99270058 -157.70199585 5.000000
105.02100372 8.55051994 -119.73400116 5.000000
105.08799744 9.78133011 -122.20400238 5.000000
104.98500061 6.62584019 -115.68299866 5.000000
108.70099640 7.86649990 -116.87999725 5.000000
110.95899963 8.86242962 -117.56199646 5.000000
46.91899872 -8.79699039 -145.79200745 5.000000
49.03129959 -9.47517014 -147.40100098 5.000000
50.86149979 -10.47369957 -150.06300354 5.000000
113.02999878 6.17032003 -114.10199738 5.000000
116.77500153 7.57530022 -114.63600159 5.000000
51.10260010 -7.75903988 -145.39700317 5.000000
123.05500031 5.34709978 -113.04499817 5.000000
121.11199951 3.68745995 -110.77500153 5.000000
142.60200500 -11.53260040 -103.87200165 5.000000
115.12200165 12.48369980 -119.90899658 5.000000
114.77999878 9.54113007 -116.93900299 5.000000
141.28700256 -10.87240028 -99.70600128 5.000000
140.99499512 -9.12722969 -97.59110260 5.000000
116.96299744 10.84809971 -117.56999969 5.000000
142.66600037 -11.34560013 -97.45149994 5.000000
143.83200073 -14.43760014 -101.38600159 5.000000
121.00000000 8.55961037 -115.98600006 5.000000
144.10899353 -13.63710022 -97.36689758 5.000000
116.95999908 5.66057014 -112.83499908 5.000000
120.93800354 6.46956015 -113.97499847 5.000000
118.82399750 13.34889984 -118.91100311 5.000000
121.04499817 12.40779972 -118.19999695 5.000000
122.98000336 10.95919991 -117.39299774 5.000000
124.92199707 8.55622005 -115.97100067 5.000000
127.11699677 9.31198978 -116.90499878 5.000000
127.00000000 7.04740000 -115.32499695 5.000000
142.52000427 -9.36236954 -95.37139893 5.000000
143.79400635 -9.76986980 -93.15339661 5.000000
120.99800110 14.67080021 -119.82700348 5.000000
124.97699738 13.22119999 -118.92199707 5.000000
130.69500732 8.39593029 -118.04900360 5.000000
132.79600525 6.62262011 -117.73999786 5.000000
132.86999512 4.68393993 -115.74099731 5.000000
146.96699524 -3.14755011 -111.56700134 5.000000
149.04499817 -6.87103987 -108.96299744 5.000000
98.94930267 4.69877005 -111.65399933 5.000000
99.03230286 3.39126992 -109.27999878 5.000000
110.92500305 7.07175016 -115.41100311 5.000000
112.96600342 5.00079012 -111.49199677 5.000000
112.91300201 10.97399998 -119.47799683 5.000000
126.71900177 3.90368009 -112.40100098 5.000000
126.73300171 2.07772994 -110.10800171 5.000000
130.75100708 2.32321000 -112.04900360 5.000000
128.97300720 0.86400402 -109.55200195 5.000000
136.38699341 -5.87661982 -99.39990234 5.000000
136.93600464 -7.19021988 -101.57199860 5.000000
138.96200562 -9.16197968 -101.57399750 5.000000
138.94200134 -7.18456984 -97.56829834 5.000000
140.52699280 -7.38217020 -95.36000061 5.000000
143.92100525 -11.67399979 -95.31400299 5.000000
135.16600037 1.21925998 -113.29000092 5.000000
136.61700439 2.22234011 -116.02700043 5.000000
138.78100586 2.42509007 -117.83899689 5.000000
152.94700623 -7.16202021 -109.61000061 5.000000
150.61000061 -11.47669983 -108.33300018 5.000000
128.91299438 4.68706989 -113.73999786 5.000000
130.74600220 6.39538002 -116.07199860 5.000000
133.03300476 0.98332900 -111.44200134 5.000000
40.75859833 -20.15200043 -158.46499634 5.000000
97.24610138 12.00409985 -126.41600037 5.000000
96.89959717 15.04199982 -129.35400391 5.000000
37.07849884 -23.52219963 -161.20700073 5.000000
32.36819839 -26.73329926 -159.92799377 5.000000
31.64999962 -29.57169914 -161.52000427 5.000000
44.90890121 -16.89879990 -155.78399658 5.000000
46.86109924 -15.12549973 -157.49400330 5.000000
97.21160126 9.92430019 -124.30999756 5.000000
98.99449921 8.72049046 -121.64299774 5.000000
100.88600159 7.55074978 -119.23600006 5.000000
104.97399902 4.78036022 -111.61000061 5.000000
109.04199982 6.22369003 -113.93900299 5.000000
108.83000183 9.35980034 -119.26499939 5.000000
38.67990112 -25.09650040 -165.38999939 5.000000
115.38600159 14.16660023 -122.19599915 5.000000
134.77099609 -5.39104986 -101.56199646 5.000000
134.20500183 -4.32147980 -99.34200287 5.000000
103.08000183 2.32946992 -107.88999939 5.000000
107.17900085 2.34342003 -105.74400330 5.000000
107.08200073 4.23069000 -109.88500214 5.000000
143.05299377 -7.12308979 -93.62809753 5.000000
145.92300415 -14.48869991 -93.95010376 5.000000
34.67620087 -29.05439949 -169.40699768 5.000000
145.73899841 -16.63590050 -97.76689911 5.000000
147.22399902 -18.99609947 -97.61000061 5.000000
112.86499786 13.00570011 -123.50099945 5.000000
133.37600708 -4.56099987 -103.54199982 5.000000
131.07600403 -2.99664998 -101.59600067 5.000000
147.07499695 -17.09000015 -95.61879730 5.000000
148.75100708 -17.31719971 -91.53009796 5.000000
52.91469955 -6.96735001 -143.62199402 5.000000
104.94799805 0.91695398 -105.52999878 5.000000
108.81600189 3.49704003 -107.26999664 5.000000
110.85800171 11.14529991 -121.43599701 5.000000
93.04100037 14.68120003 -129.83099365 5.000000
166.76400757 -65.23999786 -112.73999786 5.000000
168.99099731 -63.12200165 -111.70099640 5.000000
44.83850098 -17.12660027 -159.46299744 5.000000
93.22229767 12.39389992 -128.25900269 5.000000
94.71939850 9.34850025 -125.03199768 5.000000
90.96360016 12.84619999 -129.57400513 5.000000
100.97599792 5.28086996 -113.33799744 5.000000
145.64100647 -16.61339951 -101.36499786 5.000000
167.02099609 -59.23870087 -111.15100098 5.000000
169.13299561 -55.15179825 -110.90499878 5.000000
94.61039734 7.66080999 -122.82299805 5.000000
96.78510284 7.65277004 -121.03099823 5.000000
136.94200134 -5.19543982 -95.57119751 5.000000
145.41400146 -12.92259979 -91.75749969 5.000000
148.70199585 -9.42584038 -108.29699707 5.000000
151.19400024 -9.08687019 -108.81300354 5.000000
141.15400696 -2.56912994 -110.92600250 5.000000
144.92399597 -1.36327004 -113.72699738 5.000000
145.12899780 -6.84778976 -108.75399780 5.000000
89.32569885 14.56910038 -130.68499756 5.000000
91.19680023 10.42790031 -128.06100464 5.000000
100.94100189 15.45520020 -128.99600220 5.000000
102.93599701 7.15078020 -117.43599701 5.000000
108.91799927 5.22685003 -111.38300323 5.000000
106.98899841 10.64070034 -123.68199921 5.000000
140.86599731 0.50741899 -115.76899719 5.000000
137.39999390 -0.07386200 -112.81600189 5.000000
144.79800415 -3.94563007 -110.37599945 5.000000
146.95599365 -5.18978977 -109.63500214 5.000000
155.15699768 -22.94689941 -104.83300018 5.000000
156.96800232 -21.15430069 -105.57199860 5.000000
158.80900574 -19.36540031 -107.78500366 5.000000
159.01800537 -25.09930038 -105.28399658 5.000000
161.03799438 -21.04630089 -107.47299957 5.000000
162.93699646 -26.90830040 -104.88400269 5.000000
164.97300720 -25.07999992 -105.38099670 5.000000
109.13600159 12.15690041 -125.89700317 5.000000
82.18800354 13.20709991 -134.77099609 5.000000
82.84220123 10.89739990 -133.42799377 5.000000
83.48419952 16.65390015 -134.18400574 5.000000
85.28810120 12.62650013 -132.11199951 5.000000
158.94400024 -29.14469910 -104.99099731 5.000000
162.86799622 -31.26569939 -104.98999786 5.000000
165.11500549 -29.11009979 -104.05999756 5.000000
153.88400269 -25.77330017 -92.77380371 5.000000
155.14500427 -29.08379936 -103.32599640 5.000000
159.24000549 -33.12009811 -105.12400055 5.000000
160.94000244 -35.14649963 -105.71700287 5.000000
164.65499878 -33.34059906 -104.79799652 5.000000
164.85099792 -37.17610168 -105.36299896 5.000000
167.30200195 -37.09410095 -104.25000000 5.000000
104.93499756 13.98900032 -128.40199280 5.000000
153.03199768 -29.14299965 -95.60849762 5.000000
155.38400269 -31.03540039 -93.84089661 5.000000
90.89219666 16.95479965 -131.28500366 5.000000
160.57499695 -39.18610001 -105.96900177 5.000000
162.50300598 -37.16519928 -106.41999817 5.000000
79.97100067 11.43080044 -136.96499634 5.000000
164.40899658 -39.63999939 -106.15000153 5.000000
80.33470154 9.16856003 -135.05299377 5.000000
113.01499939 4.07247019 -107.92299652 5.000000
87.17890167 14.87930012 -132.05999756 5.000000
154.60800171 -33.21879959 -95.40709686 5.000000
154.56300354 -35.22380066 -97.58139801 5.000000
88.78009796 11.08419991 -129.19700623 5.000000
159.45199585 -37.06169891 -105.06700134 5.000000
162.87100220 -41.25939941 -107.27799988 5.000000
164.94299316 -43.18009949 -107.53099823 5.000000
166.51100159 -41.44699860 -104.95700073 5.000000
77.64230347 8.35894012 -137.89300537 5.000000
83.39499664 8.57483006 -132.06300354 5.000000
75.72309875 6.01241016 -138.04699707 5.000000
78.13860321 5.63023996 -134.76699829 5.000000
155.05799866 -37.14540100 -95.59190369 5.000000
155.73500061 -35.13209915 -94.13629913 5.000000
80.73130035 6.98806000 -133.31100464 5.000000
155.62199402 -41.05649948 -95.59950256 5.000000
159.64599609 -43.12179947 -104.98400116 5.000000
85.55989838 8.40931988 -130.32200623 5.000000
161.68899536 -45.16839981 -106.88899994 5.000000
165.03100586 -47.33480072 -108.73899841 5.000000
166.79200745 -45.41419983 -108.50900269 5.000000
166.96499634 -49.17649841 -109.51499939 5.000000
87.34729767 6.60371017 -128.16000366 5.000000
158.81399536 -47.16249847 -103.67199707 5.000000
163.66000366 -51.25109863 -108.83499908 5.000000
166.78799438 -52.89160156 -110.14700317 5.000000
60.90840149 -1.04023004 -135.61700439 5.000000
61.28630066 0.01767000 -133.17999268 5.000000
62.78960037 -0.65086699 -137.80700684 5.000000
65.14510345 0.15405300 -137.30599976 5.000000
66.93139648 1.04482996 -135.64599609 5.000000
75.32689667 4.23270988 -135.87399292 5.000000
76.71040344 3.53625011 -133.48300171 5.000000
80.94039917 4.86555004 -131.54600525 5.000000
157.52000427 -53.14810181 -101.37000275 5.000000
158.75500488 -53.14419937 -103.67099762 5.000000
161.32000732 -53.19480133 -107.30300140 5.000000
49.03680038 -7.70804977 -143.41299438 5.000000
160.94799805 -23.18810081 -105.60900116 5.000000
162.89799500 -57.14250183 -109.63800049 5.000000
61.34640121 -3.26812005 -145.90899658 5.000000
59.09970093 -3.43132997 -141.53999329 5.000000
61.47249985 -2.26952004 -141.48800659 5.000000
63.49359894 -3.22567010 -144.02099609 5.000000
162.99600220 -63.19409943 -111.48699951 5.000000
156.77499390 -31.23240089 -103.87400055 5.000000
40.90919876 -21.14800072 -163.53399658 5.000000
66.91439819 2.09862995 -131.39199829 5.000000
65.00810242 1.63617003 -133.29899597 5.000000
161.00300598 -69.17220306 -113.55400085 5.000000
165.13999939 -68.92500305 -114.26200104 5.000000
162.98599243 -71.13529968 -115.62699890 5.000000
164.49299622 -73.60569763 -116.54900360 5.000000
135.28199768 -0.50735301 -111.03299713 5.000000
167.33099365 -33.12009811 -104.38500214 5.000000
132.92799377 2.77395010 -113.64499664 5.000000
167.29699707 -70.76750183 -114.46700287 5.000000
97.02590179 5.45264006 -113.30599976 5.000000
151.62600708 -97.35260010 -125.77700043 5.000000
153.09500122 -93.19730377 -125.58399963 5.000000
154.40899658 -95.26380157 -121.13999939 5.000000
153.74899292 -97.44039917 -122.71499634 5.000000
153.58399963 -100.95099640 -124.30699921 5.000000
56.86370087 -4.89657021 -141.61700439 5.000000
161.00999451 -75.32260132 -117.34899902 5.000000
162.82600403 -77.39659882 -119.10700226 5.000000
148.25700378 -104.94499969 -128.96299744 5.000000
150.68899536 -99.08630371 -127.46499634 5.000000
150.42399597 -103.18399811 -126.96800232 5.000000
162.67900085 -49.12689972 -107.90699768 5.000000
164.86599731 -55.10240173 -109.89399719 5.000000
160.47999573 -49.14550018 -105.98999786 5.000000
154.94599915 -89.15760040 -119.57299805 5.000000
155.54800415 -91.08029938 -117.80100250 5.000000
141.34500122 -113.51100159 -131.83999634 5.000000
143.07600403 -111.24500275 -131.65299988 5.000000
141.04600525 -115.24800110 -129.64300537 5.000000
145.29699707 -109.34799957 -130.10600281 5.000000
78.72750092 10.96189976 -139.47799683 5.000000
50.93009949 -6.91911983 -141.64199829 5.000000
71.30829620 2.07210994 -137.73199463 5.000000
68.85890198 1.74310994 -133.75500488 5.000000
152.96899414 -103.15799713 -125.58000183 5.000000
160.94200134 -78.91410065 -119.94300079 5.000000
146.99699402 -107.16899872 -129.60800171 5.000000
149.19700623 -107.21199799 -127.84700012 5.000000
157.75100708 -80.01750183 -118.70200348 5.000000
159.22999573 -83.69860077 -123.02300262 5.000000
160.90499878 -81.09069824 -121.64600372 5.000000
100.97599792 6.39207983 -115.75399780 5.000000
155.01699829 -93.14790344 -119.60900116 5.000000
161.50500488 -59.28720093 -109.19100189 5.000000
165.00599670 -61.22859955 -111.35500336 5.000000
156.17199707 -39.16820145 -93.38130188 5.000000
158.40499878 -67.10140228 -103.51100159 5.000000
157.75100708 -68.90209961 -105.48600006 5.000000
157.29400635 -71.28289795 -103.59400177 5.000000
160.52200317 -66.99520111 -111.85099792 5.000000
162.96600342 -67.16719818 -113.55799866 5.000000
165.16799927 -76.92549896 -118.01699829 5.000000
159.51699829 -73.69110107 -115.02400208 5.000000
164.60200500 -79.89540100 -120.39399719 5.000000
157.52799988 -49.15299988 -101.35099792 5.000000
155.75999451 -85.20709991 -117.68800354 5.000000
155.73300171 -87.16940308 -115.72100067 5.000000
161.00000000 -85.68710327 -124.95600128 5.000000
156.17900085 -83.05010223 -115.62599945 5.000000
156.15400696 -85.20739746 -113.48899841 5.000000
154.02699280 -90.78869629 -123.67199707 5.000000
156.76699829 -91.21559906 -115.50099945 5.000000
151.92599487 -95.56439972 -127.64900208 5.000000
152.88499451 -95.15290070 -123.54699707 5.000000
157.61999512 -94.81009674 -118.05599976 5.000000
160.71899414 -57.11289978 -107.75299835 5.000000
159.04800415 -77.20800018 -117.52100372 5.000000
156.40899658 -72.93979645 -105.62200165 5.000000
158.53799438 -69.08950043 -101.50199890 5.000000
158.42500305 -65.11229706 -105.60700226 5.000000
156.04600525 -45.16210175 -95.58760071 5.000000
145.10400391 -107.22699738 -133.60200500 5.000000
147.53999329 -103.46900177 -131.74699402 5.000000
149.10400391 -101.21199799 -129.62800598 5.000000
49.01800156 -13.17920017 -155.61399841 5.000000
151.06599426 -97.20500183 -129.58799744 5.000000
131.23800659 -2.65827990 -97.64140320 5.000000
149.22700500 -21.01519966 -95.69699860 5.000000
149.34300232 -22.95380020 -97.65070343 5.000000
150.51499939 -25.37949944 -97.56739807 5.000000
150.55000305 -23.38739967 -95.38849640 5.000000
149.19799805 -19.00839996 -93.67900085 5.000000
150.78900146 -21.25819969 -93.51229858 5.000000
152.29200745 -23.54310036 -93.22180176 5.000000
55.23229980 -5.78970003 -143.44700623 5.000000
29.97730064 -34.99380112 -163.43699646 5.000000
75.05210114 0.56296301 -121.66300201 5.000000
77.23349762 2.23678994 -123.74900055 5.000000
78.67600250 3.51638007 -125.40200043 5.000000
79.23600006 2.30473995 -119.70099640 5.000000
81.34429932 4.08949995 -121.81300354 5.000000
82.94539642 4.88980007 -119.57399750 5.000000
60.99969864 -1.15100002 -147.60000610 5.000000
62.79470062 0.96186101 -147.40800476 5.000000
74.94210052 2.92028999 -131.56100464 5.000000
78.41899872 4.17025995 -130.98100281 5.000000
89.61409760 7.49546003 -126.67199707 5.000000
82.99289703 4.81129980 -129.61300659 5.000000
84.67230225 5.33863020 -127.25499725 5.000000
51.22280121 -5.39693022 -159.83599854 5.000000
51.36880112 -7.43212986 -157.85400391 5.000000
52.86780167 -7.05740976 -155.52200317 5.000000
53.22489929 -5.48391008 -157.79200745 5.000000
53.31930161 -3.51528001 -159.88999939 5.000000
54.87459946 -5.00113010 -155.46099854 5.000000
54.93080139 -3.13341999 -157.55700684 5.000000
57.97340012 -4.85743999 -148.85600281 5.000000
58.19699860 -2.69560003 -150.97500610 5.000000
68.85800171 3.00677991 -143.45300293 5.000000
68.98239899 4.81394005 -145.60299683 5.000000
68.82800293 7.07053995 -147.32000732 5.000000
72.61389923 5.35998011 -143.35000610 5.000000
60.33069992 3.04068995 -150.78100586 5.000000
60.66600037 0.97345901 -149.29100037 5.000000
62.51969910 3.07337999 -148.94200134 5.000000
36.88840103 -27.13450050 -167.52600098 5.000000
64.80480194 1.00209999 -145.41200256 5.000000
65.23310089 4.58701992 -148.02400208 5.000000
66.83329773 3.00344992 -145.40699768 5.000000
56.12720108 -4.76041985 -151.05599976 5.000000
56.59090042 -6.97794008 -149.28199768 5.000000
98.96479797 6.84834003 -117.57499695 5.000000
153.12800598 -31.09259987 -97.56500244 5.000000
77.42209625 10.56099987 -141.82800293 5.000000
90.94210052 6.90498018 -123.54100037 5.000000
141.06399536 -0.75752997 -113.28700256 5.000000
124.99800110 0.94837600 -107.52799988 5.000000
151.80200195 -27.69000053 -97.41719818 5.000000
131.25599670 -0.40756300 -108.92900085 5.000000
148.53300476 -21.41990089 -99.64730072 5.000000
66.72709656 1.13224006 -143.34399414 5.000000
42.86700058 -13.11690044 -163.48399353 5.000000
44.37519836 -10.87819958 -162.78399658 5.000000
47.23009872 -7.36077976 -161.95300293 5.000000
44.74069977 -13.06719971 -161.36599731 5.000000
48.03850174 -10.62139988 -158.94500732 5.000000
62.86600113 -1.04039001 -145.48500061 5.000000
54.70460129 -7.01058006 -151.39199829 5.000000
74.79859924 6.90402985 -143.53599548 5.000000
46.38399887 -10.80630016 -160.91600037 5.000000
43.07730103 -17.18689919 -161.66999817 5.000000
71.16290283 6.43882990 -145.88099670 5.000000
64.78240204 -1.02944005 -143.41200256 5.000000
56.12770081 -2.66687012 -155.24299622 5.000000
58.75239944 0.93247998 -151.39399719 5.000000
46.44990158 -12.91510010 -159.12500000 5.000000
49.43420029 -7.48744011 -160.06799316 5.000000
41.12530136 -15.20680046 -165.65800476 5.000000
34.91730118 -27.12980080 -171.55799866 5.000000
35.95589828 -30.84919930 -166.93600464 5.000000
150.07899475 -98.55390167 -133.57499695 5.000000
32.94139862 -35.15489960 -171.56599426 5.000000
70.73680115 3.23305988 -141.37899780 5.000000
40.25490189 -16.91169930 -167.41600037 5.000000
40.11880112 -18.81800079 -165.02200317 5.000000
68.57969666 1.39616001 -141.25999451 5.000000
73.24379730 4.44488001 -139.72399902 5.000000
80.96589661 4.84012985 -127.57800293 5.000000
87.12870026 6.26670980 -123.67800140 5.000000
66.39700317 -0.35701299 -141.17900085 5.000000
76.82530212 3.28232002 -127.46900177 5.000000
82.89790344 5.02138996 -123.55400085 5.000000
49.79520035 -9.96191025 -156.22399902 5.000000
51.66820145 -9.47280025 -154.08399963 5.000000
38.06250000 -22.72249985 -167.22500610 5.000000
42.60570145 -21.09440041 -161.26199341 5.000000
56.71699905 -4.67222023 -137.60699463 5.000000
58.88600159 -3.03501010 -137.59800720 5.000000
156.21099854 -49.11809921 -97.77860260 5.000000
155.83799744 -43.02980042 -97.57409668 5.000000
36.21480179 -28.04949951 -174.55099487 5.000000
158.75599670 -61.14059830 -105.63500214 5.000000
158.82699585 -65.16220093 -101.56500244 5.000000
158.27999878 -61.25180054 -101.61199951 5.000000
159.58900452 -65.29239655 -109.35099792 5.000000
158.44200134 -63.16350174 -103.60399628 5.000000
158.36300659 -59.14730072 -103.73000336 5.000000
159.27999878 -57.19200134 -105.45300293 5.000000
157.71200562 -57.04880142 -101.37599945 5.000000
41.22230148 -13.25070000 -167.68400574 5.000000
156.80299377 -51.15719986 -99.63690186 5.000000
156.64999390 -45.17860031 -99.68630219 5.000000
110.97699738 4.71448994 -109.62999725 5.000000
75.16649628 2.17676997 -125.77400208 5.000000
72.99659729 0.68975103 -123.62100220 5.000000
30.43199921 -33.06999969 -161.53399658 5.000000
85.15219879 6.04344988 -117.47699738 5.000000
88.96320343 6.63970995 -117.56500244 5.000000
72.99790192 2.75848007 -135.58900452 5.000000
155.17999268 -87.23380280 -121.54199982 5.000000
156.42100525 -79.06909943 -111.69999695 5.000000
155.19700623 -79.15219879 -107.50700378 5.000000
158.74400330 -63.19630051 -99.57099915 5.000000
150.27799988 -19.62529945 -91.42310333 5.000000
140.41799927 -9.75286007 -104.09400177 5.000000
147.37500000 -18.86109924 -101.41600037 5.000000
150.64100647 -23.36470032 -101.79399872 5.000000
152.05299377 -27.56130028 -99.95490265 5.000000
152.24800110 -21.49519920 -91.24079895 5.000000
66.52249908 7.33186007 -148.69200134 5.000000
142.49099731 -110.77400208 -135.52600098 5.000000
81.39289856 3.73498011 -117.70600128 5.000000
73.07929993 2.16963005 -127.69899750 5.000000
96.90850067 6.18896008 -115.76899719 5.000000
110.89800262 3.34850001 -105.37200165 5.000000
63.12450027 0.28884000 -135.36900330 5.000000
153.34199524 -16.63459969 -106.73400116 5.000000
155.19999695 -14.91219997 -109.20400238 5.000000
154.88299561 -19.28059959 -105.80400085 5.000000
157.19099426 -16.88260078 -109.27799988 5.000000
117.13700104 3.65877008 -109.25599670 5.000000
145.01400757 -9.06746006 -107.44400024 5.000000
146.50999451 -11.65760040 -106.30400085 5.000000
148.65699768 -13.52289963 -106.17900085 5.000000
153.26800537 -12.92560005 -109.06400299 5.000000
94.96089935 4.81643009 -111.58899689 5.000000
140.72599792 -5.59624004 -108.13800049 5.000000
133.14599609 -2.73112988 -107.19200134 5.000000
163.26800537 -20.54439926 -108.95099640 5.000000
153.80799866 -31.44939995 -100.12699890 5.000000
120.79199982 2.22098994 -107.87999725 5.000000
156.16299438 -76.97889709 -109.86299896 5.000000
159.99000549 -61.03670120 -108.09700012 5.000000
157.26899719 -26.94070053 -104.76499939 5.000000
155.24600220 -39.11009979 -97.56079865 5.000000
157.18400574 -85.30310059 -123.45200348 5.000000
156.27000427 -55.25149918 -97.82849884 5.000000
62.91590118 1.81659997 -131.41700745 5.000000
64.94450378 2.18635988 -129.51300049 5.000000
157.11599731 -59.11729813 -97.53389740 5.000000
157.61900330 -77.34929657 -115.39399719 5.000000
35.06650162 -33.55469894 -178.86099243 5.000000
155.32600403 -53.14550018 -95.47840118 5.000000
37.49539948 -25.53689957 -173.02000427 5.000000
157.22099304 -75.22399902 -111.49099731 5.000000
157.19000244 -43.12789917 -101.47899628 5.000000
158.74299622 -71.07810211 -111.66799927 5.000000
156.72900391 -39.20640182 -101.70400238 5.000000
157.32299805 -37.08729935 -103.27600098 5.000000
158.38000488 -39.24219894 -104.02100372 5.000000
158.49499512 -67.07039642 -107.65699768 5.000000
156.47900391 -81.10079956 -113.61900330 5.000000
155.95700073 -74.84449768 -107.86100006 5.000000
152.81799316 -23.25580025 -103.79499817 5.000000
152.19599915 -25.55960083 -102.18399811 5.000000
156.27999878 -41.31259918 -99.88710022 5.000000
146.19400024 -13.94480038 -104.45200348 5.000000
147.24099731 -16.92679977 -103.32900238 5.000000
149.37100220 -16.69479942 -104.77999878 5.000000
158.59500122 -69.05870056 -109.71800232 5.000000
149.05999756 -19.08399963 -103.48500061 5.000000
151.32200623 -18.73559952 -104.71800232 5.000000
135.42700195 -2.22575998 -108.82399750 5.000000
138.94200134 -3.20607996 -109.62500000 5.000000
142.74400330 -9.48246956 -105.91699982 5.000000
151.35000610 -14.72659969 -106.88400269 5.000000
135.48199463 -4.17466021 -106.70099640 5.000000
127.36499786 -0.30914599 -107.25900269 5.000000
130.44900513 -2.29822993 -106.11000061 5.000000
134.96299744 4.83704996 -117.58100128 5.000000
137.40600586 -6.61508989 -105.32900238 5.000000
38.41529846 -22.89270020 -171.82000732 5.000000
150.94099426 -21.17609978 -103.60500336 5.000000
160.60299683 -19.65839958 -110.02799988 5.000000
128.59399414 -1.88214004 -103.67400360 5.000000
155.54400635 -35.02270126 -101.33499908 5.000000
156.70199585 -37.14699936 -91.48680115 5.000000
155.31799316 -37.09579849 -99.48970032 5.000000
140.55200195 -7.67226982 -106.15000153 5.000000
156.19799805 -43.15990067 -93.52819824 5.000000
30.68390083 -31.12739944 -159.57400513 5.000000
31.42630005 -25.41220093 -157.30700684 5.000000
39.25270081 -19.27980042 -167.65199280 5.000000
39.06209946 -19.21479988 -171.51400757 5.000000
36.53409958 -25.03260040 -169.38800049 5.000000
39.21200180 -21.25329971 -169.58200073 5.000000
38.87919998 -27.06040001 -175.69200134 5.000000
71.03040314 2.33681011 -131.59700012 5.000000
87.04070282 6.38986015 -119.55599976 5.000000
86.96980286 6.69861984 -115.56300354 5.000000
157.39500427 -14.80799961 -110.91600037 5.000000
37.14989853 -29.71319962 -176.95700073 5.000000
116.89499664 2.59496999 -105.62300110 5.000000
121.14099884 1.36315000 -105.48999786 5.000000
125.12799835 -0.60663301 -97.54139709 5.000000
122.80500031 0.21898800 -99.61139679 5.000000
126.96199799 -1.16358995 -99.57700348 5.000000
125.29399872 -0.46221301 -101.57700348 5.000000
116.75599670 2.17334008 -101.68299866 5.000000
114.91000366 2.55598998 -103.64499664 5.000000
119.21499634 1.52497995 -101.54100037 5.000000
126.94499969 -1.22061002 -95.57790375 5.000000
128.74699402 -1.76853001 -97.57980347 5.000000
132.93099976 -3.22501993 -95.56649780 5.000000
147.04699707 -15.09829998 -91.60289764 5.000000
155.67799377 -49.27159882 -93.48570251 5.000000
157.29200745 -71.27259827 -107.53500366 5.000000
157.16400146 -73.22109985 -109.51300049 5.000000
156.62600708 -82.97810364 -119.73000336 5.000000
155.94299316 -81.03009796 -109.33999634 5.000000
156.27099609 -83.19000244 -111.55599976 5.000000
156.67599487 -87.19069672 -111.52999878 5.000000
154.86300659 -91.09429932 -127.60399628 5.000000
156.24899292 -88.54129791 -125.96900177 5.000000
156.61900330 -89.23249817 -113.49299622 5.000000
153.57000732 -93.54519653 -129.42500305 5.000000
146.91700745 -105.20700073 -133.55799866 5.000000
144.67199707 -108.96600342 -135.67599487 5.000000
155.19200134 -75.21690369 -105.50000000 5.000000
140.88999939 -113.09700012 -135.58700562 5.000000
154.55499268 -92.79930115 -131.69999695 5.000000
142.47900391 -112.70200348 -137.86399841 5.000000
148.60099792 -100.97699738 -133.51300049 5.000000
142.65899658 -108.75000000 -137.34399414 5.000000
159.28199768 -16.82480049 -111.16400146 5.000000
136.43699646 -3.78428006 -93.28130341 5.000000
157.49499512 -31.06850052 -91.89450073 5.000000
135.86500549 -116.34600067 -134.73899841 5.000000
158.87399292 -86.91439819 -127.80699921 5.000000
120.94799805 0.79103500 -97.58080292 5.000000
33.72380066 -29.37540054 -171.95100403 5.000000
152.25599670 -105.38600159 -126.56999969 5.000000
40.78350067 -15.10709953 -169.56599426 5.000000
57.63299942 2.84394002 -153.89199829 5.000000
122.79000092 0.35689899 -103.59100342 5.000000
130.71099854 -1.99187005 -93.49890137 5.000000
90.92500305 6.55578995 -115.60099792 5.000000
90.80919647 5.81820011 -111.80400085 5.000000
34.92969894 -30.98150063 -177.82800293 5.000000
69.00150299 1.83080006 -129.52200317 5.000000
94.95520020 6.63556004 -117.61900330 5.000000
92.81839752 6.14218998 -113.73000336 5.000000
88.97969818 6.94299984 -113.57499695 5.000000
89.04519653 6.43070984 -121.61399841 5.000000
92.96649933 6.77975988 -119.58699799 5.000000
85.21260071 5.90261984 -121.58300018 5.000000
55.17509842 -5.63212013 -139.53300476 5.000000
153.21899414 -90.83950043 -133.16099548 5.000000
66.92040253 2.24414992 -127.55599976 5.000000
70.94349670 1.14631999 -125.51699829 5.000000
41.10110092 -23.21470070 -175.44599915 5.000000
14.95829964 36.85269928 -155.61099243 6.000000
-4.32514000 67.18019867 -140.97399902 6.000000
-2.05702996 64.20400238 -142.38299561 6.000000
-7.56549978 72.62809753 -139.92500305 6.000000
7.01115990 58.85350037 -151.36900330 6.000000
9.29905033 63.21950150 -152.58900452 6.000000
8.89910030 60.78829956 -151.77799988 6.000000
0.92088598 68.83779907 -149.73800659 6.000000
-4.98225021 78.84780121 -148.97799683 6.000000
3.42052007 69.09839630 -150.99699402 6.000000
10.91539955 58.73389816 -152.02499390 6.000000
-2.96912003 74.85060120 -149.17700195 6.000000
1.10557997 64.67520142 -150.38400269 6.000000
12.81400013 60.52109909 -152.71499634 6.000000
2.80083990 66.80429840 -150.02600098 6.000000
-7.58494997 68.62770081 -137.97599792 6.000000
18.89039993 56.90010071 -152.48199463 6.000000
16.83449936 52.98120117 -152.39399719 6.000000
-3.03978992 80.92759705 -149.17700195 6.000000
-1.02800000 76.84429932 -149.54699707 6.000000
3.11068010 62.79909897 -150.86300659 6.000000
-5.43096018 70.65390015 -141.84599304 6.000000
5.12753010 64.91829681 -151.24200439 6.000000
1.21221995 76.90670013 -151.08700562 6.000000
8.93937016 54.84500122 -151.82600403 6.000000
10.93760014 50.85889816 -151.87399292 6.000000
0.84029698 82.89969635 -150.03300476 6.000000
5.09671021 60.86859894 -151.08399963 6.000000
14.47410011 28.57439995 -151.23199463 6.000000
-6.99462986 82.84829712 -149.02000427 6.000000
12.92370033 68.77970123 -155.70500183 6.000000
12.82820034 64.55310059 -154.19299316 6.000000
14.90400028 66.69869995 -155.85899353 6.000000
-0.98781002 72.84750366 -149.39799500 6.000000
16.82290077 26.71069908 -145.50799561 6.000000
2.88193989 72.81320190 -151.70199585 6.000000
5.35969019 69.08399963 -153.02699280 6.000000
7.13845015 71.00990295 -155.33200073 6.000000
-0.98978800 84.83869934 -149.25799561 6.000000
9.21420002 69.12229919 -155.09100342 6.000000
8.86678982 66.73899841 -153.78399658 6.000000
6.99055004 62.85729980 -151.51400757 6.000000
0.97330600 86.89409637 -149.13699341 6.000000
-19.72279930 93.88950348 -140.24600220 6.000000
-20.98660088 93.00189972 -137.36300659 6.000000
-18.42210007 91.70770264 -139.08999634 6.000000
-17.10149956 88.74400330 -135.62899780 6.000000
-37.11740112 108.83699799 -139.73699951 6.000000
-12.53610039 87.33200073 -147.16799927 6.000000
-37.14410019 104.83899689 -139.84800720 6.000000
-8.92138958 88.94539642 -148.80299377 6.000000
4.38977003 76.75869751 -156.02099609 6.000000
5.45404005 42.98149872 -141.15899658 6.000000
-34.73270035 106.92500305 -140.94599915 6.000000
-35.02500153 102.71900177 -140.21499634 6.000000
6.86676979 40.80369949 -141.65800476 6.000000
7.95746994 42.33589935 -144.39199829 6.000000
-4.98673010 84.88510132 -148.97300720 6.000000
8.89482021 38.81409836 -143.62899780 6.000000
-104.57599640 155.42100525 -159.05299377 6.000000
-31.14329910 104.73200226 -142.12399292 6.000000
-3.00057006 86.89119720 -149.14900208 6.000000
-105.92199707 153.71699524 -156.52200317 6.000000
-32.83229828 101.02899933 -140.73599243 6.000000
-5.03489017 90.85199738 -149.49800110 6.000000
-102.45099640 153.47999573 -158.64500427 6.000000
-1.02708006 90.77259827 -149.88200378 6.000000
-29.02899933 100.86100006 -141.48500061 6.000000
-29.09560013 98.46019745 -140.43400574 6.000000
2.93390989 90.86630249 -149.41600037 6.000000
-91.08509827 143.03700256 -158.62800598 6.000000
2.93051004 93.14730072 -150.73699951 6.000000
-87.10260010 146.99899292 -159.18400574 6.000000
-89.00769806 140.76199341 -157.80400085 6.000000
-27.03759956 96.83070374 -139.59599304 6.000000
-25.01399994 98.89350128 -141.46800232 6.000000
-24.83650017 95.39119720 -138.74000549 6.000000
-22.82439995 97.29039764 -141.07600403 6.000000
-17.14469910 96.70400238 -148.24499512 6.000000
-14.99740028 98.94139862 -148.92100525 6.000000
-35.05950165 112.82199860 -141.59399414 6.000000
-10.84440041 90.98899841 -148.68099976 6.000000
-15.19400024 94.70729828 -148.35699463 6.000000
-3.14934993 92.41739655 -150.70500183 6.000000
2.88358998 50.81750107 -141.61099243 6.000000
-33.57220078 110.54299927 -142.38000488 6.000000
3.87307000 47.18040085 -140.97500610 6.000000
-3.20164990 96.37090302 -152.50500488 6.000000
4.84590006 48.78020096 -143.62399292 6.000000
-11.06970024 96.79090118 -149.72500610 6.000000
-32.04059982 111.79299927 -144.63900757 6.000000
5.01356983 50.86920166 -145.57000732 6.000000
-8.82894993 97.20420074 -150.97300720 6.000000
7.04361010 44.97880173 -154.46099854 6.000000
13.01529980 46.70999908 -153.03999329 6.000000
10.93400002 43.00310135 -153.99200439 6.000000
-8.83318996 93.08930206 -148.94799805 6.000000
-29.16419983 106.72299957 -143.83900452 6.000000
-37.09749985 114.80400085 -141.63999939 6.000000
-6.83713007 95.20269775 -150.90199280 6.000000
-27.85400009 107.78199768 -146.44599915 6.000000
-27.23229980 104.62300110 -144.00700378 6.000000
-26.16110039 105.90200043 -146.75399780 6.000000
-25.20210075 102.62799835 -143.88900757 6.000000
-24.21660042 103.87599945 -146.76800537 6.000000
-20.95700073 100.98699951 -148.50900269 6.000000
-19.09709930 102.81400299 -148.85899353 6.000000
-19.15460014 98.67479706 -148.23199463 6.000000
12.96980000 38.73669815 -155.23100281 6.000000
-17.05139923 100.89199829 -148.79899597 6.000000
-14.80539989 101.15899658 -151.19999695 6.000000
-31.95899963 114.05400085 -148.89999390 6.000000
-33.24560165 116.51300049 -150.06799316 6.000000
-29.20929909 114.54900360 -150.30900574 6.000000
-26.86779976 115.08000183 -151.10299683 6.000000
-29.02770042 110.85800171 -149.56100464 6.000000
-27.19409943 112.56999969 -150.05400085 6.000000
6.74350977 44.74340057 -143.73199463 6.000000
-26.82019997 109.19699860 -148.85600281 6.000000
8.93527985 48.85789871 -153.87699890 6.000000
-25.13330078 110.64499664 -150.03799438 6.000000
-13.21529961 92.72630310 -148.32800293 6.000000
-23.36759949 110.45899963 -152.09700012 6.000000
-23.05540085 108.78399658 -149.85099792 6.000000
-22.95560074 104.98699951 -148.90299988 6.000000
-21.03059959 106.87000275 -151.43200684 6.000000
-18.83410072 105.07499695 -153.43499756 6.000000
-17.34950066 104.45600128 -155.77499390 6.000000
-15.10849953 102.75299835 -155.62899780 6.000000
-12.79520035 101.22299957 -153.30900574 6.000000
-12.66300011 99.39640045 -150.83299255 6.000000
-11.22959995 100.47100067 -155.78599548 6.000000
-9.31289959 100.32700348 -154.13900757 6.000000
-6.69423008 99.71759796 -154.84399414 6.000000
0.96274102 94.66049957 -151.91900635 6.000000
14.93560028 54.84870148 -151.99099731 6.000000
-35.03889847 120.83599854 -151.59300232 6.000000
-32.86119843 123.12400055 -153.02999878 6.000000
-35.36280060 118.30400085 -150.17700195 6.000000
-32.99789810 118.98699951 -151.21499634 6.000000
-4.92218018 62.91870117 -137.46299744 6.000000
-4.66824007 65.04789734 -139.17500305 6.000000
-27.41679955 118.50399780 -153.98599243 6.000000
-3.22474003 60.71340179 -137.75300598 6.000000
-3.10104990 62.79830170 -139.64199829 6.000000
-1.49285996 60.53390121 -139.98800659 6.000000
-24.80089951 113.08599854 -151.13299561 6.000000
-25.32769966 114.59400177 -153.81199646 6.000000
-25.66040039 116.43599701 -155.88900757 6.000000
14.79119968 49.02560043 -152.69099426 6.000000
4.94711018 56.84799957 -151.70199585 6.000000
13.04389954 56.78530121 -152.30200195 6.000000
14.93529987 58.68190002 -152.36399841 6.000000
-17.27350044 94.56459808 -145.90699768 6.000000
12.94579983 52.86100006 -151.91999817 6.000000
13.81540012 25.27449989 -154.20300293 6.000000
-34.97740173 124.97299957 -153.30299377 6.000000
-33.04949951 128.82000732 -155.62399292 6.000000
16.50959969 26.58530045 -149.37500000 6.000000
-30.69109917 125.13500214 -155.04600525 6.000000
18.00799942 24.14060020 -147.16700745 6.000000
19.31489944 21.10650063 -147.81399536 6.000000
-30.73430061 121.16500092 -152.97999573 6.000000
21.29170036 19.07799911 -147.82600403 6.000000
-27.57489967 122.51399994 -157.85099792 6.000000
-27.49749947 120.51200104 -155.99400330 6.000000
-35.10879898 130.67500305 -155.96899414 6.000000
-11.36800003 78.77890015 -137.56500244 6.000000
-9.72959995 72.75209808 -135.89399719 6.000000
-32.91439819 132.96000671 -157.26400757 6.000000
-9.41786957 74.71499634 -137.75100708 6.000000
-4.42902994 71.18669891 -147.53199768 6.000000
-31.18989944 130.71699524 -157.78999329 6.000000
16.91550064 62.63019943 -154.08200073 6.000000
-24.93180084 93.30509949 -137.07400513 6.000000
-22.71870041 99.41999817 -143.00399780 6.000000
15.40769958 29.34530067 -143.90199280 6.000000
3.89072990 73.24220276 -154.70599365 6.000000
-97.34279633 146.58000183 -158.64500427 6.000000
-94.96410370 144.97599792 -158.91400146 6.000000
9.38955021 71.29149628 -156.88999939 6.000000
-21.45260048 100.23699951 -146.06700134 6.000000
10.98960018 36.94139862 -155.97999573 6.000000
-35.20859909 136.61300659 -158.31500244 6.000000
-36.87189865 139.05099487 -158.73399353 6.000000
-33.02460098 96.86479950 -139.50999451 6.000000
-96.93329620 148.99699402 -159.34800720 6.000000
-93.07769775 148.73800659 -159.90199280 6.000000
-6.96339989 86.91909790 -148.94700623 6.000000
3.68994999 80.69680023 -154.78999329 6.000000
5.30263996 78.79119873 -157.25900269 6.000000
8.95643997 40.70240021 -155.18299866 6.000000
16.94339943 40.83509827 -155.62100220 6.000000
-20.68630028 97.31849670 -143.15600586 6.000000
-19.02300072 94.85549927 -143.56900024 6.000000
-17.37409973 92.50420380 -143.72999573 6.000000
-15.80700016 91.99330139 -146.18299866 6.000000
-31.02510071 108.84500122 -143.55400085 6.000000
2.30784011 54.59619904 -141.74299622 6.000000
-33.75870132 114.03099823 -146.08999634 6.000000
4.95420980 50.82109833 -153.40800476 6.000000
16.84600067 44.80920029 -155.76899719 6.000000
-30.59770012 111.33200073 -147.23500061 6.000000
-2.95721006 99.18049622 -155.10000610 6.000000
0.96473998 96.87079620 -153.52499390 6.000000
-28.96419907 116.99700165 -151.28799438 6.000000
-8.75331020 70.92510223 -137.39300537 6.000000
-36.91559982 129.14599609 -154.90499878 6.000000
-9.27396011 76.74600220 -139.67300415 6.000000
-7.39156008 74.69470215 -141.75199890 6.000000
-37.06529999 126.76799774 -153.72999573 6.000000
-30.26300049 127.40299988 -156.78900146 6.000000
-11.43449974 82.72499847 -137.57000732 6.000000
-95.15920258 150.64999390 -160.13800049 6.000000
-85.03800201 144.86300659 -157.51899719 6.000000
-5.28434992 72.69170380 -145.62199402 6.000000
-19.10219955 96.75540161 -145.67599487 6.000000
-37.12500000 122.64900208 -151.98500061 6.000000
-28.98679924 122.87699890 -155.52699280 6.000000
-28.84790039 124.95800018 -157.45199585 6.000000
-28.70109940 127.04299927 -159.37399292 6.000000
-87.03250122 150.49099731 -161.99299622 6.000000
-84.98660278 148.67599487 -159.85699463 6.000000
-125.05599976 166.03700256 -167.30999756 6.000000
-123.03800201 164.82499695 -169.57000732 6.000000
-125.04000092 166.75199890 -163.55799866 6.000000
-73.05370331 140.09300232 -151.62899780 6.000000
-72.80449677 136.21800232 -146.07200623 6.000000
-72.73719788 138.02299500 -148.22000122 6.000000
12.75699997 28.72310066 -153.40400696 6.000000
14.55210018 30.62140083 -149.34800720 6.000000
13.02219963 34.97129822 -156.20599365 6.000000
8.42533016 36.67839813 -142.07000732 6.000000
9.85398960 39.42430115 -147.54100037 6.000000
-3.64875007 68.60729980 -143.67599487 6.000000
-0.55216599 63.10169983 -147.54299927 6.000000
-91.03479767 146.83099365 -159.61099243 6.000000
-9.24732971 78.73500061 -141.64500427 6.000000
10.38659954 34.53860092 -143.84500122 6.000000
-38.84049988 106.81800079 -139.13800049 6.000000
-35.30550003 114.57900238 -143.78100586 6.000000
-42.88019943 120.95400238 -139.46600342 6.000000
-42.63769913 117.08100128 -137.14900208 6.000000
-40.53839874 117.13500214 -139.04899597 6.000000
-39.65629959 112.61100006 -138.55000305 6.000000
-39.03749847 114.83599854 -139.57200623 6.000000
-16.94540024 102.96800232 -151.43200684 6.000000
-38.90259933 116.94000244 -141.46899414 6.000000
-37.22159958 116.66999817 -143.68699646 6.000000
-41.12229919 132.71000671 -155.98300171 6.000000
-38.95600128 134.96600342 -157.19999695 6.000000
-46.98410034 138.90299988 -158.06100464 6.000000
-45.05889893 140.93499756 -158.17500305 6.000000
-45.09260178 134.69599915 -156.64199829 6.000000
-42.97069931 136.88499451 -157.22900391 6.000000
-31.00419998 95.04509735 -139.10499573 6.000000
-47.00730133 142.86000061 -157.91400146 6.000000
-37.43090057 112.68900299 -140.18699646 6.000000
1.71834004 53.07350159 -139.35000610 6.000000
-45.04639816 144.86199951 -157.71600342 6.000000
-11.09210014 80.82360077 -139.57600403 6.000000
7.31640005 73.14559937 -157.16000366 6.000000
9.54304981 73.36309814 -158.91700745 6.000000
-2.97902012 101.06199646 -157.37199402 6.000000
-24.89830017 107.05500031 -148.88499451 6.000000
-16.48450089 89.51940155 -139.29800415 6.000000
-42.96599960 126.97000122 -153.36599731 6.000000
-41.18930054 124.61299896 -151.84500122 6.000000
-43.31859970 130.37399292 -154.70300293 6.000000
-36.86209869 133.14100647 -156.72999573 6.000000
-48.84360123 140.88999939 -158.26400757 6.000000
-0.44840500 57.23040009 -137.33399963 6.000000
-49.02310181 144.84100342 -157.62899780 6.000000
-43.09090042 142.93400574 -158.24299622 6.000000
-6.77130985 64.97949982 -137.27799988 6.000000
-7.10267019 76.66329956 -146.03999329 6.000000
-8.45571041 79.14880371 -145.48500061 6.000000
-39.00550079 130.91499329 -155.39900208 6.000000
-10.02480030 83.58799744 -145.91799927 6.000000
-54.99259949 152.81399536 -161.64500427 6.000000
-52.30310059 148.54499817 -158.83200073 6.000000
-47.05459976 132.95899963 -156.54299927 6.000000
-37.43640137 120.17099762 -150.29600525 6.000000
-38.85430145 125.22000122 -152.79800415 6.000000
2.96910000 54.72740173 -152.85600281 6.000000
-43.11750031 122.77300262 -141.61199951 6.000000
-14.11349964 89.88719940 -146.78999329 6.000000
-9.15520954 78.60169983 -150.75300598 6.000000
6.48716021 46.55130005 -145.71499634 6.000000
11.01010036 33.11610031 -156.66000366 6.000000
-50.93730164 142.85299683 -158.02099609 6.000000
-54.43370056 150.51400757 -160.50599670 6.000000
-57.36259842 147.16999817 -160.83599854 6.000000
-54.73780060 143.09500122 -159.68099976 6.000000
-52.92549896 144.90299988 -159.77299500 6.000000
-50.97470093 138.86000061 -158.17399597 6.000000
-54.95080185 146.78599548 -159.75300598 6.000000
-56.94219971 144.75199890 -159.84899902 6.000000
-41.12950134 128.65800476 -153.97300720 6.000000
-160.96600342 152.63000488 -193.39300537 6.000000
-160.91700745 154.38200378 -191.18499756 6.000000
-156.80400085 154.15199280 -193.16099548 6.000000
-157.17399597 155.61599731 -189.93800354 6.000000
-51.47800064 132.27799988 -141.45799255 6.000000
-52.50249863 131.68200684 -145.78399658 6.000000
5.45427990 49.11130142 -149.90800476 6.000000
-29.00769997 93.11990356 -137.13200378 6.000000
-46.50070190 127.54100037 -151.49299622 6.000000
-46.73699951 127.23300171 -147.55900574 6.000000
-41.41809845 120.54499817 -141.79100037 6.000000
18.57710075 38.79399872 -156.34199524 6.000000
23.19860077 32.68059921 -157.92399597 6.000000
25.01580048 36.70569992 -157.79800415 6.000000
24.76569939 39.12360001 -159.09199524 6.000000
27.37789917 38.41730118 -157.67700195 6.000000
-168.68200684 144.27999878 -197.22799683 6.000000
-170.71200562 142.11099243 -199.36399841 6.000000
-166.50799561 146.08399963 -197.02000427 6.000000
-179.10200500 131.14999390 -209.81700134 6.000000
-174.63800049 126.46299744 -217.17300415 6.000000
-171.66600037 129.41299438 -217.91799927 6.000000
-182.94799805 124.27300262 -212.83399963 6.000000
-178.72900391 128.33799744 -212.96200562 6.000000
-180.81300354 124.34500122 -214.86000061 6.000000
-176.85099792 126.57299805 -215.25399780 6.000000
11.57219982 33.18529892 -151.98699951 6.000000
-181.36300659 117.06500244 -217.94200134 6.000000
-177.48399353 115.13700104 -223.90400696 6.000000
-182.87699890 112.71600342 -219.35499573 6.000000
-185.03900146 108.83799744 -219.57299805 6.000000
-183.12100220 108.92800140 -221.69299316 6.000000
-180.68099976 110.53800201 -223.16900635 6.000000
-178.93899536 108.79499817 -225.50100708 6.000000
-183.17300415 104.95600128 -223.74200439 6.000000
-181.35000610 102.99900055 -225.90299988 6.000000
-179.69900513 101.04399872 -228.13800049 6.000000
-177.80000305 98.92310333 -231.97700500 6.000000
26.93740082 40.87609863 -159.48100281 6.000000
-181.13400269 96.87229919 -227.68299866 6.000000
14.17650032 32.38169861 -147.19200134 6.000000
4.04293013 51.51290131 -150.21000671 6.000000
12.47360039 29.98439980 -145.38699341 6.000000
0.34586501 60.49800110 -145.48100281 6.000000
1.95568001 57.43149948 -145.55499268 6.000000
10.97049999 36.84489822 -149.57899475 6.000000
1.17610002 58.95529938 -147.59100342 6.000000
0.89088202 58.79779816 -143.59599304 6.000000
3.86180997 54.12649918 -145.58700562 6.000000
-12.30119991 85.38600159 -141.47300720 6.000000
-10.98029995 82.87220001 -141.57099915 6.000000
23.48290062 30.39940071 -156.43299866 6.000000
-102.45800018 155.66799927 -161.07000732 6.000000
-99.12699890 154.71499634 -161.69700623 6.000000
-99.08470154 152.79600525 -159.67199707 6.000000
27.06929970 34.78879929 -155.66700745 6.000000
13.36429977 31.29030037 -141.77900696 6.000000
-10.93280029 80.85140228 -135.58799744 6.000000
-13.67730045 86.31909943 -135.65899658 6.000000
-8.89603996 101.19400024 -157.39900208 6.000000
-95.21980286 152.43800354 -162.16499329 6.000000
-89.12049866 145.02600098 -158.89199829 6.000000
-93.04570007 140.63699341 -158.29800415 6.000000
-107.50399780 158.18699646 -159.88999939 6.000000
-87.00640106 142.67599487 -158.02099609 6.000000
-107.30100250 156.52900696 -157.84399414 6.000000
-105.64600372 157.88800049 -161.99400330 6.000000
-89.04100037 148.45599365 -160.39100647 6.000000
-165.39100647 151.60699463 -192.31900024 6.000000
-163.16499329 153.26600647 -191.92300415 6.000000
-91.04149628 150.81300354 -161.61300659 6.000000
-85.22429657 139.03799438 -155.17399597 6.000000
-81.45559692 141.39999390 -154.67500305 6.000000
-84.67919922 142.37600708 -156.47300720 6.000000
-91.04199982 139.04699707 -157.19700623 6.000000
-131.03700256 164.85299683 -167.58000183 6.000000
-129.22900391 165.83399963 -165.82400513 6.000000
-127.03199768 164.34399414 -171.39999390 6.000000
-133.11000061 173.03799438 -195.33700562 6.000000
-175.03700256 138.84700012 -203.57899475 6.000000
-133.10800171 170.88900757 -193.51100159 6.000000
-172.99600220 140.72399902 -201.53300476 6.000000
-130.91900635 172.48500061 -193.95500183 6.000000
-170.86700439 140.42900085 -203.39399719 6.000000
-173.35899353 137.66700745 -206.24499512 6.000000
-127.00099945 172.50300598 -193.85200500 6.000000
-170.78599548 138.34599304 -207.25799561 6.000000
-168.50100708 139.85400391 -207.13299561 6.000000
-130.86199951 174.34399414 -196.10200500 6.000000
-151.06399536 156.96699524 -189.59399414 6.000000
-156.98399353 156.40299988 -187.56100464 6.000000
-153.02299500 156.74499512 -185.59100342 6.000000
-130.85899353 170.33500671 -192.06599426 6.000000
-170.93800354 136.70199585 -209.47999573 6.000000
-135.86900330 173.18400574 -198.30000305 6.000000
-135.62899780 169.08399963 -197.06900024 6.000000
-173.10899353 134.97900391 -209.68099976 6.000000
-168.71800232 138.34599304 -209.30999756 6.000000
-158.93699646 156.21400452 -185.65299988 6.000000
-135.00599670 168.81399536 -193.62500000 6.000000
-135.25199890 171.12600708 -195.16099548 6.000000
-171.05799866 134.87600708 -211.59899902 6.000000
-68.96949768 139.06599426 -151.50300598 6.000000
-67.14430237 138.20500183 -149.83500671 6.000000
-79.23059845 155.52499390 -177.09300232 6.000000
-74.61979675 157.82400513 -176.11700439 6.000000
-76.75700378 156.27400208 -176.10299683 6.000000
-76.95439911 153.82800293 -171.84100342 6.000000
-79.05480194 152.00599670 -167.97000122 6.000000
-73.03320313 152.13499451 -170.19000244 6.000000
-80.49410248 136.07000732 -150.44999695 6.000000
-80.65519714 138.29200745 -152.28500366 6.000000
-79.10549927 140.97900391 -153.40699768 6.000000
-79.08159637 150.46699524 -165.81700134 6.000000
-73.02890015 151.42500305 -167.00599670 6.000000
-76.80760193 138.34300232 -150.14100647 6.000000
-76.88639832 140.40600586 -152.01300049 6.000000
-74.99929810 149.48699951 -164.97399902 6.000000
-74.94640350 147.47200012 -163.01100159 6.000000
-71.03140259 149.53300476 -164.80900574 6.000000
-63.03379822 145.06199646 -161.23300171 6.000000
-61.03649902 141.18200684 -159.09899902 6.000000
-59.00770187 142.77999878 -159.72099304 6.000000
-71.00890350 147.41099548 -162.94799805 6.000000
-57.17649841 141.00399780 -158.92999268 6.000000
-70.99420166 145.11000061 -161.33700562 6.000000
-64.84880066 152.43200684 -166.17599487 6.000000
-152.61099243 164.67399597 -206.14700317 6.000000
-63.16230011 149.03799438 -163.00000000 6.000000
-150.90199280 166.78500366 -205.67799377 6.000000
-68.76540375 154.05400085 -168.67700195 6.000000
-67.06179810 146.40400696 -162.11599731 6.000000
-62.64649963 154.30700684 -166.45500183 6.000000
-148.96699524 166.78300476 -203.66200256 6.000000
-59.27199936 151.11199951 -163.07499695 6.000000
-150.92999268 162.78199768 -203.68699646 6.000000
-59.23109818 155.07699585 -165.20899963 6.000000
-67.06980133 144.07899475 -160.50999451 6.000000
-60.99079895 146.75900269 -161.73699951 6.000000
-65.04380035 142.72900391 -159.70899963 6.000000
-71.07260132 159.01100159 -175.46899414 6.000000
-73.05879974 156.91900635 -173.52099609 6.000000
-74.96910095 154.07299805 -170.14199829 6.000000
-71.06349945 156.95500183 -171.45899963 6.000000
-81.16590118 145.29600525 -157.03700256 6.000000
-78.95939636 144.50500488 -155.93899536 6.000000
