-28.02700043 -139.61599731 -473.87399292 6.000000
-80.73899841 -49.12379837 -508.08999634 6.000000
-83.46579742 -52.44189835 -507.07598877 6.000000
-25.94379997 -136.08900452 -475.23999023 6.000000
-80.20580292 -55.84529877 -502.46899414 6.000000
-78.00830078 -58.02140045 -500.90100098 6.000000
-75.93910217 -54.30039978 -501.50900269 6.000000
-84.10749817 -102.01000214 -476.91198730 6.000000
-81.50959778 -99.18769836 -479.81900024 6.000000
-78.03099823 -99.95960236 -480.72100830 6.000000
-32.16590118 -130.10400391 -477.40301514 6.000000
-89.71009827 -91.69090271 -478.01400757 6.000000
-88.21440125 -96.25189972 -477.19000244 6.000000
-82.13710022 -81.73439789 -496.07101440 6.000000
-66.03759766 -70.03639984 -500.92498779 6.000000
-43.93019867 -117.68199921 -480.11898804 6.000000
-63.93099976 -110.31700134 -477.73300171 6.000000
-85.84860229 -76.22599792 -499.34799194 6.000000
-87.92359924 -74.13649750 -501.02899170 6.000000
-73.95040131 -65.90599823 -500.22000122 6.000000
-70.02690125 -67.94860077 -500.70098877 6.000000
-70.11460114 -62.17039871 -501.39801025 6.000000
-84.25740051 -94.24980164 -481.14300537 6.000000
-80.40750122 -96.59390259 -481.64300537 6.000000
-33.98440170 -125.82499695 -478.17898560 6.000000
-35.99390030 -132.07099915 -475.37701416 6.000000
-30.02280045 -127.94599915 -478.68099976 6.000000
-26.22120094 -126.00900269 -479.32000732 6.000000
-75.92900085 -97.73400116 -482.31399536 6.000000
-37.99679947 -139.96099854 -474.79000854 6.000000
-24.03910065 -130.10899353 -479.00601196 6.000000
-13.98180008 -141.94000244 -469.90200806 6.000000
-34.06370163 -119.63899994 -479.96398926 6.000000
-39.72209930 -135.79600525 -475.53298950 6.000000
-34.08280182 -159.98899841 -458.79098511 6.000000
-33.91180038 -146.02099609 -473.31900024 6.000000
-15.95590019 -162.01400757 -469.58499146 6.000000
-23.89200020 -140.22099304 -473.27301025 6.000000
-22.15399933 -133.57299805 -476.07000732 6.000000
-19.93779945 -138.01600647 -472.86999512 6.000000
-26.16349983 -181.88999939 -453.00399780 6.000000
-23.89599991 -183.96000671 -454.31698608 6.000000
-25.69499969 -177.77000427 -454.19100952 6.000000
-21.85610008 -179.84899902 -456.47100830 6.000000
-16.02230072 -175.95100403 -468.71200562 6.000000
-16.02479935 -171.94900513 -468.76800537 6.000000
-93.59480286 -85.34359741 -480.09399414 6.000000
-14.03199959 -145.94299316 -470.72698975 6.000000
-40.03820038 -118.02999878 -480.83999634 6.000000
-38.02450180 -115.91899872 -482.64498901 6.000000
-34.02560043 -115.92900085 -482.66000366 6.000000
-28.01860046 -134.00199890 -476.81600952 6.000000
-14.31690025 -149.74099731 -471.40899658 6.000000
-19.80750084 -185.90299988 -456.22198486 6.000000
-17.52160072 -134.52999878 -473.65600586 6.000000
-12.03909969 -175.93699646 -469.05999756 6.000000
-22.16889954 -187.85899353 -455.28698730 6.000000
-14.07619953 -157.95599365 -470.81900024 6.000000
-14.09599972 -153.96000671 -470.84500122 6.000000
-11.82730007 -155.92900085 -472.39898682 6.000000
-17.80879974 -140.00999451 -471.03601074 6.000000
-11.89550018 -151.93600464 -472.47601318 6.000000
-80.13899994 -110.04299927 -477.27099609 6.000000
-29.92219925 -173.77200317 -454.48001099 6.000000
-7.99274015 -191.86799622 -468.42999268 6.000000
-22.08539963 -175.99099731 -458.74398804 6.000000
-19.99609947 -197.86500549 -458.82299805 6.000000
-25.53639984 -169.51100159 -460.08300781 6.000000
-20.03440094 -193.86599731 -456.97399902 6.000000
-16.05389977 -198.07499695 -458.37100220 6.000000
-15.86870003 -194.16299438 -457.54098511 6.000000
-3.96780992 -197.97399902 -469.11599731 6.000000
-4.18859005 -194.12899780 -469.27099609 6.000000
-28.22649956 -162.11999512 -462.82199097 6.000000
0.18100999 -195.71099854 -472.23300171 6.000000
-1.34231997 -191.26199341 -473.80801392 6.000000
-18.17670059 -204.44700623 -462.15499878 6.000000
-13.62870026 -169.87399292 -470.22799683 6.000000
-12.02410030 -197.94999695 -458.67700195 6.000000
-27.77350044 -165.67300415 -460.29501343 6.000000
-28.07469940 -172.01100159 -456.78900146 6.000000
-1.97934997 -201.96299744 -469.24899292 6.000000
-24.44140053 -172.28399658 -459.13400269 6.000000
-84.16690063 -98.05879974 -478.94500732 6.000000
0.16477300 -199.70199585 -469.84298706 6.000000
-11.92370033 -147.97700500 -472.47299194 6.000000
-26.31459999 -185.69799805 -453.84698486 6.000000
-16.05509949 -179.88800049 -469.01501465 6.000000
-31.87999916 -133.64700317 -476.01098633 6.000000
2.07463002 -203.84700012 -469.86898804 6.000000
-30.01420021 -142.01600647 -472.94500732 6.000000
-7.76301003 -209.55099487 -461.61099243 6.000000
-84.09860229 -69.91539764 -500.52899170 6.000000
-81.91580200 -68.11370087 -499.46899414 6.000000
1.97140002 -209.96899414 -470.23901367 6.000000
-23.98509979 -192.08900452 -456.31500244 6.000000
-36.17290115 -143.77999878 -473.76400757 6.000000
-5.86383009 -187.82299805 -470.42498779 6.000000
-6.07584000 -213.96800232 -462.55300903 6.000000
-19.48740005 -181.64199829 -458.00299072 6.000000
-1.98629999 -187.91799927 -476.64999390 6.000000
-16.80579948 -183.25000000 -460.02700806 6.000000
-18.28109932 -200.41000366 -459.93301392 6.000000
-35.26990128 -155.47799683 -459.97299194 6.000000
-3.90364003 -217.96000671 -461.32901001 6.000000
-27.98789978 -119.88899994 -478.83599854 6.000000
-0.11604400 -219.94599915 -461.27999878 6.000000
4.16540003 -218.06300354 -471.92401123 6.000000
-39.94049835 -113.41500092 -483.95199585 6.000000
3.91674995 -213.88900757 -471.07199097 6.000000
-36.10540009 -112.45099640 -485.33200073 6.000000
-9.88677025 -224.06599426 -461.16000366 6.000000
-12.37590027 -192.15400696 -459.43499756 6.000000
-6.05884981 -225.86999512 -460.27499390 6.000000
-8.13553047 -219.85699463 -462.32101440 6.000000
-5.96868992 -222.01699829 -461.02499390 6.000000
-7.89707994 -230.12600708 -459.96398926 6.000000
-2.06746006 -227.93699646 -460.88800049 6.000000
-2.03199005 -223.94700623 -460.74398804 6.000000
-2.05982995 -205.96200562 -469.50399780 6.000000
-4.02134991 -234.15699768 -462.24301147 6.000000
2.27827001 -227.87899780 -461.85501099 6.000000
-43.96229935 -126.06199646 -477.25500488 6.000000
-31.87999916 -169.79800415 -456.35900879 6.000000
-0.03192900 -213.94000244 -470.79299927 6.000000
-23.45910072 -169.48500061 -462.26098633 6.000000
-6.03464985 -239.97300720 -464.63699341 6.000000
-17.88979912 -179.85699463 -460.62899780 6.000000
-2.03270006 -238.28700256 -464.08700562 6.000000
-0.01352700 -234.00399780 -462.43899536 6.000000
-15.77690029 -187.86999512 -458.17999268 6.000000
-34.00979996 -149.97300720 -472.82800293 6.000000
6.25770998 -212.02799988 -472.09698486 6.000000
-1.99854004 -241.79699707 -465.07901001 6.000000
1.94121003 -241.75100708 -465.10699463 6.000000
-10.19130039 -178.09899902 -471.04199219 6.000000
-26.61179924 -174.64199829 -455.76400757 6.000000
-7.75739002 -183.67700195 -470.14300537 6.000000
-4.36409998 -186.16499329 -472.98599243 6.000000
-3.33857989 -189.41299438 -471.99099731 6.000000
4.14308023 -206.04200745 -469.99301147 6.000000
-8.17955971 -233.67300415 -461.26000977 6.000000
5.94999981 -221.82899475 -473.11499023 6.000000
6.72712994 -208.21200562 -471.85998535 6.000000
-70.12319946 -86.30229950 -493.36898804 6.000000
-80.17720032 -73.90470123 -498.06100464 6.000000
-9.99083042 -195.97799683 -460.33401489 6.000000
-65.95809937 -85.86289978 -494.48199463 6.000000
-77.99739838 -82.10800171 -495.06799316 6.000000
-78.03610229 -69.96910095 -498.81399536 6.000000
-69.94309998 -75.72389984 -498.15200806 6.000000
4.05693007 -189.76800537 -478.43099976 6.000000
-74.15509796 -100.25000000 -481.37500000 6.000000
-54.19469833 -113.83999634 -481.84500122 6.000000
-60.09299850 -111.77400208 -483.82400513 6.000000
-42.09669876 -120.16899872 -479.28799438 6.000000
-54.13750076 -106.25099945 -484.98098755 6.000000
-44.22299957 -112.52400208 -483.52200317 6.000000
-62.34889984 -88.17410278 -495.21200562 6.000000
-61.55619812 -91.60350037 -493.93200684 6.000000
-60.43370056 -94.32340240 -493.33499146 6.000000
-56.20980072 -126.50199890 -469.30999756 6.000000
-57.94710159 -128.89500427 -465.67300415 6.000000
-74.15699768 -70.13300323 -499.66500854 6.000000
-69.96910095 -71.87519836 -499.91699219 6.000000
-74.00420380 -117.98000336 -476.78799438 6.000000
-65.85579681 -73.67559814 -499.88299561 6.000000
-60.02349854 -125.93900299 -468.67800903 6.000000
-74.01899719 -61.94530106 -500.64498901 6.000000
-10.01650047 -227.87899780 -460.22198486 6.000000
-63.93429947 -116.27600098 -475.34799194 6.000000
-41.88249969 -142.57400513 -473.70901489 6.000000
3.97706008 -244.03999329 -466.51098633 6.000000
-11.81669998 -220.16499329 -463.27398682 6.000000
-24.02610016 -195.72999573 -457.14599609 6.000000
7.60650015 -217.97200012 -474.99301147 6.000000
-13.42840004 -189.36000061 -459.91101074 6.000000
0.18638299 -186.01499939 -478.82800293 6.000000
0.59024203 -189.37500000 -477.72900391 6.000000
2.03110003 -191.85099792 -476.53799438 6.000000
2.02713990 -199.81199646 -472.36999512 6.000000
6.01098013 -199.75799561 -472.28900146 6.000000
-65.99030304 -120.23000336 -473.10198975 6.000000
3.35790992 -184.89700317 -481.60998535 6.000000
-54.40000153 -124.77999878 -471.56399536 6.000000
-74.08540344 -58.06760025 -501.15600586 6.000000
-80.13960266 -102.11699677 -479.05801392 6.000000
-59.82419968 -119.33000183 -473.74899292 6.000000
-80.89219666 -53.16320038 -503.73699951 6.000000
-80.24690247 -63.83200073 -500.00500488 6.000000
-78.11280060 -66.07520294 -499.55499268 6.000000
-83.79869843 -78.46040344 -497.75299072 6.000000
-62.24470139 -72.14270020 -501.35699463 6.000000
-86.31169891 -65.84030151 -502.21499634 6.000000
-84.01879883 -59.95360184 -502.70700073 6.000000
-83.84970093 -56.05429840 -504.82000732 6.000000
-65.69650269 -91.59200287 -491.83300781 6.000000
-64.00150299 -123.74199677 -470.39999390 6.000000
-12.38370037 -164.03199768 -471.35299683 6.000000
-12.01099968 -159.94700623 -472.66699219 6.000000
-62.03310013 -79.95269775 -498.70498657 6.000000
-61.53509903 -83.54380035 -497.75698853 6.000000
-46.18349838 -127.95300293 -478.40100098 6.000000
-41.68330002 -111.13999939 -485.83898926 6.000000
-64.12570190 -76.17780304 -499.18899536 6.000000
-10.28160000 -169.96299744 -474.76599121 6.000000
-10.37880039 -165.96099854 -474.83499146 6.000000
-43.88240051 -129.97399902 -477.14999390 6.000000
-56.19969940 -90.03749847 -498.91900635 6.000000
-37.78710175 -153.79600525 -458.39801025 6.000000
-37.90859985 -149.88400269 -460.61199951 6.000000
-11.50290012 -167.90499878 -472.30899048 6.000000
-53.76470184 -119.14199829 -474.45800781 6.000000
-20.83090019 -174.51499939 -461.10998535 6.000000
-28.20689964 -176.20100403 -453.02899170 6.000000
-64.09609985 -127.40100098 -467.59600830 6.000000
-75.95870209 -94.03269958 -490.97900391 6.000000
-34.61339951 -152.45899963 -463.19400024 6.000000
-47.99029922 -111.84100342 -482.54400635 6.000000
-71.89700317 -120.18199921 -475.17199707 6.000000
-56.13389969 -131.11700439 -463.76800537 6.000000
-37.07749939 -148.72599792 -463.41198730 6.000000
-39.79750061 -147.83299255 -458.53900146 6.000000
-104.18000031 -77.32019806 -486.72100830 6.000000
-90.23600006 -51.70100021 -520.57501221 6.000000
-87.83730316 -52.08509827 -514.80499268 6.000000
-86.66819763 -49.46749878 -516.33300781 6.000000
-100.02100372 -77.64669800 -484.71099854 6.000000
-97.98030090 -77.64820099 -488.64801025 6.000000
-86.32530212 -53.76779938 -510.53399658 6.000000
-15.09000015 -183.48100281 -462.68899536 6.000000
-2.06270003 -209.99000549 -470.40200806 6.000000
-31.64809990 -157.57899475 -464.45599365 6.000000
-9.98725033 -196.00599670 -470.01998901 6.000000
-11.42549992 -171.86199951 -472.25399780 6.000000
0.06351300 -218.09399414 -471.76901245 6.000000
1.80133998 -225.88299561 -473.48498535 6.000000
1.98567998 -221.95899963 -472.62100220 6.000000
-20.03409958 -176.00199890 -469.04501343 6.000000
-26.04319954 -167.89799500 -470.32299805 6.000000
10.49330044 -206.15600586 -476.38800049 6.000000
12.64729977 -204.30299377 -478.35198975 6.000000
11.86670017 -207.90600586 -480.73199463 6.000000
11.36810017 -215.93099976 -482.83898926 6.000000
13.95009995 -231.95500183 -488.69000244 6.000000
14.26119995 -235.91200256 -488.65499878 6.000000
15.73579979 -232.19299316 -480.77899170 6.000000
13.18959999 -228.45700073 -480.88598633 6.000000
15.82499981 -233.98199463 -484.59600830 6.000000
13.26529980 -228.12899780 -488.65200806 6.000000
12.94880009 -227.50300598 -484.67800903 6.000000
12.65460014 -225.77799988 -490.91198730 6.000000
10.32950020 -217.94599915 -480.58599854 6.000000
10.36610031 -221.87300110 -480.60299683 6.000000
11.56369972 -222.03199768 -484.72799683 6.000000
12.15330029 -217.91600037 -486.72399902 6.000000
12.28810024 -221.87300110 -488.80200195 6.000000
9.57695961 -209.80700684 -476.95300293 6.000000
9.91211987 -213.94599915 -478.70999146 6.000000
11.64960003 -211.88999939 -482.74301147 6.000000
11.86260033 -213.96699524 -486.67999268 6.000000
8.47124004 -208.11399841 -474.41400146 6.000000
14.11559963 -199.99600220 -476.63598633 6.000000
9.41306973 -203.53300476 -472.81600952 6.000000
9.80704975 -200.06100464 -473.20498657 6.000000
11.66709995 -201.82400513 -474.97198486 6.000000
3.89069009 -194.44000244 -475.38101196 6.000000
5.95828009 -192.14599609 -476.96301270 6.000000
-208.67999268 -113.91799927 -649.00701904 6.000000
-207.72700500 -109.98300171 -650.55902100 6.000000
-204.43499756 -147.95300293 -658.93798828 6.000000
-203.12899780 -151.99800110 -662.35797119 6.000000
-212.14999390 -127.91400146 -644.84600830 6.000000
-210.50199890 -129.87199402 -647.14898682 6.000000
-210.22700500 -125.90799713 -646.85101318 6.000000
-207.97799683 -123.94999695 -650.66198730 6.000000
-208.75399780 -119.92500305 -649.09497070 6.000000
-206.65800476 -121.94100189 -653.02197266 6.000000
-206.74499512 -117.98400116 -653.07501221 6.000000
-210.63600159 -113.83599854 -642.85302734 6.000000
-210.24200439 -109.91100311 -642.74902344 6.000000
-209.45500183 -111.99900055 -646.48797607 6.000000
-206.32099915 -111.92099762 -654.83599854 6.000000
-205.24200439 -151.92900085 -657.28997803 6.000000
-201.55499268 -145.99200439 -664.42901611 6.000000
-206.94599915 -151.86000061 -653.95697021 6.000000
-207.07200623 -147.91400146 -654.12902832 6.000000
-207.45899963 -155.96200562 -652.19799805 6.000000
-206.08900452 -157.95500183 -654.71600342 6.000000
-205.05400085 -160.04100037 -657.05798340 6.000000
-206.80799866 -143.95700073 -655.10699463 6.000000
-222.43800354 -153.92100525 -643.12799072 6.000000
-208.56300354 -135.87800598 -650.98699951 6.000000
-208.88400269 -139.95399475 -651.30798340 6.000000
-208.10000610 -131.93699646 -650.74298096 6.000000
-206.25900269 -131.92799377 -654.82501221 6.000000
-0.27109799 -182.27699280 -481.00698853 6.000000
-3.73952007 -181.74299622 -478.50000000 6.000000
-204.75999451 -168.06900024 -653.34197998 6.000000
-204.93800354 -164.00799561 -655.02398682 6.000000
-203.67199707 -167.90899658 -656.62500000 6.000000
-203.55000305 -159.93800354 -662.54400635 6.000000
-203.46299744 -155.99899292 -662.51397705 6.000000
-209.42900085 -153.99099731 -650.02502441 6.000000
-208.54299927 -149.94000244 -651.14501953 6.000000
-209.39500427 -145.94200134 -650.14501953 6.000000
-203.72399902 -143.94400024 -660.48297119 6.000000
-208.74600220 -127.83499908 -649.20202637 6.000000
-204.63699341 -129.88499451 -657.11499023 6.000000
-205.06199646 -119.88700104 -656.10400391 6.000000
-202.30900574 -121.97699738 -660.90002441 6.000000
-202.70300293 -118.01599884 -661.09899902 6.000000
-205.09700012 -171.69700623 -651.98498535 6.000000
-210.42700195 -157.97200012 -649.21502686 6.000000
-207.18600464 -137.99699402 -654.24700928 6.000000
-204.57099915 -139.92999268 -659.06298828 6.000000
-208.74200439 -166.04400635 -649.53997803 6.000000
-206.81900024 -164.05700684 -651.53802490 6.000000
-204.55700684 -176.06900024 -651.23602295 6.000000
-202.69599915 -172.07000732 -656.87597656 6.000000
-201.11900330 -178.39599609 -655.18103027 6.000000
-9.24717999 -168.09899902 -477.27801514 6.000000
-7.17688990 -169.59800720 -480.19900513 6.000000
-20.44300079 -172.25100708 -464.93798828 6.000000
-8.38286018 -160.00100708 -478.82800293 6.000000
-6.00123978 -173.93600464 -480.61999512 6.000000
-10.81029987 -161.96000671 -475.10900879 6.000000
-10.53979969 -192.35000610 -462.67498779 6.000000
-11.96490002 -189.92500305 -464.69900513 6.000000
-13.78489971 -185.80999756 -460.65600586 6.000000
-16.58679962 -180.31100464 -464.77700806 6.000000
-6.22931004 -182.06199646 -472.81100464 6.000000
-9.61168003 -157.93499756 -476.47799683 6.000000
-9.89113998 -173.90600586 -474.59698486 6.000000
-24.87430000 -166.60699463 -462.91699219 6.000000
-18.66060066 -176.39999390 -462.99899292 6.000000
-7.02386999 -176.45899963 -477.32800293 6.000000
-5.31979990 -177.50799561 -480.22100830 6.000000
-4.11971998 -175.98899841 -482.73098755 6.000000
4.11077976 -228.01899719 -474.17001343 6.000000
-7.25544977 -179.44900513 -474.17300415 6.000000
11.07830048 -218.09899902 -490.30999756 6.000000
-8.79008007 -172.16600037 -477.17098999 6.000000
-9.01171970 -163.81199646 -478.14898682 6.000000
15.49839973 -238.06300354 -486.10699463 6.000000
-7.97446012 -202.00300598 -469.45401001 6.000000
7.89401007 -195.69299316 -474.28500366 6.000000
9.75508022 -193.25399780 -475.54800415 6.000000
-48.06510162 -104.05400085 -496.70300293 6.000000
-48.41999817 -105.15399933 -492.96200562 6.000000
12.28660011 -209.98899841 -486.70498657 6.000000
-45.91239929 -105.63300323 -494.59100342 6.000000
7.91686010 -223.93099976 -474.79299927 6.000000
-18.03190041 -186.07800293 -468.98800659 6.000000
-9.79644966 -153.93800354 -474.47198486 6.000000
11.89509964 -196.26699829 -473.61700439 6.000000
10.91320038 -226.30499268 -494.08898926 6.000000
-42.14839935 -108.51100159 -489.04299927 6.000000
-96.14939880 -78.63330078 -482.75601196 6.000000
-100.03299713 -77.77660370 -478.67999268 6.000000
-93.98100281 -79.84249878 -488.67498779 6.000000
-85.97200012 -83.99680328 -496.87100220 6.000000
-104.08399963 -77.16220093 -478.70498657 6.000000
-106.09999847 -77.65689850 -482.68600464 6.000000
-104.00199890 -76.49449921 -490.82800293 6.000000
-102.02200317 -75.92849731 -494.68301392 6.000000
-108.02100372 -75.97129822 -492.69699097 6.000000
-109.91799927 -74.68190002 -496.96701050 6.000000
-97.91739655 -77.50399780 -492.60800171 6.000000
-112.03500366 -70.09400177 -504.79400635 6.000000
-107.83799744 -69.20960236 -506.21701050 6.000000
-96.01200104 -54.12310028 -536.67199707 6.000000
-100.00000000 -54.21049881 -536.68798828 6.000000
-100.02899933 -54.77330017 -542.70501709 6.000000
-90.80909729 -51.07550049 -524.62402344 6.000000
-92.67819977 -53.15800095 -522.43597412 6.000000
-95.56140137 -54.79169846 -523.03002930 6.000000
-101.93399811 -54.42190170 -532.74597168 6.000000
-104.16100311 -55.68980026 -530.63702393 6.000000
-106.14800262 -55.09579849 -534.47998047 6.000000
-103.98699951 -54.37699890 -536.72497559 6.000000
-108.04000092 -54.69829941 -536.88500977 6.000000
-103.83300018 -58.71910095 -521.02301025 6.000000
-105.79199982 -57.10340118 -526.94598389 6.000000
-104.01899719 -69.89179993 -508.66299438 6.000000
-109.73600006 -66.98010254 -510.09799194 6.000000
-106.22499847 -65.38999939 -512.10198975 6.000000
-108.10900116 -61.12269974 -518.08599854 6.000000
-112.10299683 -61.48329926 -518.32202148 6.000000
-114.01799774 -60.01219940 -520.72497559 6.000000
-107.97499847 -58.46789932 -522.85498047 6.000000
-113.98400116 -57.23920059 -526.42700195 6.000000
-112.12999725 -56.68140030 -528.93298340 6.000000
-114.09200287 -66.33409882 -508.88000488 6.000000
-111.96099854 -65.36879730 -512.38897705 6.000000
-120.03099823 -60.00600052 -520.71502686 6.000000
-116.02400208 -58.43009949 -522.87902832 6.000000
-114.04000092 -64.08429718 -514.75000000 6.000000
-117.92700195 -63.48880005 -512.50500488 6.000000
-120.15599823 -62.39479828 -514.84600830 6.000000
-126.08499908 -51.64879990 -534.48498535 6.000000
-130.12500000 -51.66740036 -536.46398926 6.000000
-129.81100464 -46.67839813 -543.25500488 6.000000
-133.85699463 -44.37680054 -547.08300781 6.000000
-130.19500732 -43.21170044 -548.07202148 6.000000
-134.00999451 -55.84619904 -530.68798828 6.000000
-160.14999390 -53.47060013 -556.59600830 6.000000
-96.11799622 -53.51200104 -532.74200439 6.000000
-158.44599915 -51.15240097 -562.22198486 6.000000
-160.28999329 -52.90840149 -560.54602051 6.000000
-134.05700684 -53.85889816 -534.62701416 6.000000
-138.06300354 -54.39379883 -532.69000244 6.000000
-108.20500183 -77.16649628 -488.56500244 6.000000
-127.80699921 -59.08050156 -518.47100830 6.000000
-125.72599792 -58.64720154 -522.43902588 6.000000
-135.69299316 -52.72029877 -537.25500488 6.000000
-142.03599548 -54.16770172 -534.73498535 6.000000
-127.91500092 -57.41289902 -524.54302979 6.000000
-131.86000061 -57.19660187 -522.51501465 6.000000
-130.08299255 -56.67800140 -526.84497070 6.000000
-92.07910156 -53.51959991 -534.80297852 6.000000
-138.22000122 -51.40919876 -540.41802979 6.000000
-141.70399475 -52.53530121 -541.00500488 6.000000
-134.01499939 -56.49879837 -524.69799805 6.000000
-104.04900360 -54.18640137 -540.72100830 6.000000
-103.90699768 -53.48130035 -544.64202881 6.000000
-107.77400208 -52.92670059 -542.48901367 6.000000
-129.99899292 -59.87639999 -512.66998291 6.000000
-132.07899475 -58.16270065 -516.71997070 6.000000
-92.19219971 -51.62429810 -528.72698975 6.000000
-94.52269745 -53.02890015 -526.50598145 6.000000
-138.09899902 -56.32970047 -520.71301270 6.000000
-137.96600342 -55.37450027 -528.59997559 6.000000
-142.01600647 -55.35419846 -526.59002686 6.000000
-147.94400024 -54.51200104 -532.75701904 6.000000
-148.08500671 -53.55239868 -538.62701416 6.000000
-89.88379669 -58.09970093 -510.81900024 6.000000
-89.04010010 -54.97529984 -513.45599365 6.000000
-141.99800110 -55.70209885 -520.69598389 6.000000
-91.16020203 -57.10260010 -513.42700195 6.000000
-96.07959747 -59.85879898 -514.63702393 6.000000
-93.83999634 -56.23020172 -518.85101318 6.000000
-99.97930145 -60.02809906 -516.72802734 6.000000
-146.08799744 -55.55670166 -520.67297363 6.000000
-97.87460327 -58.33660126 -518.89202881 6.000000
-146.07200623 -55.40029907 -524.62701416 6.000000
-99.90630341 -56.20460129 -524.81097412 6.000000
-150.05299377 -55.82249832 -524.65301514 6.000000
-152.06100464 -55.85229874 -530.67797852 6.000000
-154.39500427 -57.44169998 -528.59698486 6.000000
-156.71600342 -59.27750015 -530.53997803 6.000000
-110.02700043 -57.87749863 -526.66802979 6.000000
-135.78300476 -57.22969818 -512.60302734 6.000000
-108.00099945 -56.20890045 -530.77801514 6.000000
-113.89600372 -55.22209930 -532.41302490 6.000000
-135.84800720 -57.09460068 -518.56298828 6.000000
-138.13999939 -56.46659851 -516.69598389 6.000000
-112.01200104 -58.44260025 -522.88299561 6.000000
-140.05400085 -56.08769989 -506.70599365 6.000000
-139.98300171 -55.66730118 -510.69198608 6.000000
-120.05500031 -54.27349854 -530.90502930 6.000000
-119.96800232 -51.60729980 -534.46502686 6.000000
-124.01100159 -50.20660019 -536.86401367 6.000000
-144.10899353 -55.38299942 -510.71301270 6.000000
-142.00000000 -55.61449814 -514.71697998 6.000000
-125.94599915 -44.47560120 -545.06799316 6.000000
-146.09199524 -55.67860031 -514.67498779 6.000000
-150.11000061 -57.79790115 -516.71697998 6.000000
-149.87600708 -56.49819946 -520.98602295 6.000000
-140.02799988 -53.89039993 -538.67700195 6.000000
-117.99199677 -61.75450134 -518.61999512 6.000000
-149.96200562 -52.15670013 -548.76202393 6.000000
-124.13999939 -60.41370010 -516.84002686 6.000000
-154.18699646 -53.50949860 -546.56597900 6.000000
-152.16799927 -51.70930099 -552.59301758 6.000000
-106.02700043 -73.84439850 -498.64099121 6.000000
-122.21900177 -59.10509872 -523.08197021 6.000000
-154.30700684 -52.83069992 -550.46801758 6.000000
-157.79800415 -54.43619919 -548.86199951 6.000000
-124.10299683 -57.19179916 -526.15197754 6.000000
-126.08499908 -55.62590027 -528.47497559 6.000000
-130.00799561 -55.98939896 -530.73999023 6.000000
-88.67089844 -49.34769821 -522.81701660 6.000000
-97.82779694 -54.42679977 -526.79602051 6.000000
-142.01499939 -54.66790009 -530.77697754 6.000000
-146.11399841 -55.02230072 -528.61602783 6.000000
-116.27400208 -79.53019714 -492.49798584 6.000000
-117.57499695 -78.80079651 -495.20999146 6.000000
-126.14399719 -62.35060120 -508.81900024 6.000000
-126.32499695 -61.14680099 -513.06201172 6.000000
-110.00700378 -55.28570175 -534.47601318 6.000000
-116.06600189 -56.16889954 -528.77600098 6.000000
-90.15489960 -53.82199860 -516.60498047 6.000000
-124.04799652 -47.74209976 -540.54498291 6.000000
-123.92500305 -42.72589874 -547.32397461 6.000000
-124.03399658 -40.00070190 -550.73901367 6.000000
-130.14199829 -39.43999863 -552.20300293 6.000000
-155.19400024 -57.08599854 -532.98101807 6.000000
-132.03100586 -33.79140091 -556.49499512 6.000000
-87.17530060 -58.67819977 -507.43499756 6.000000
-157.81900024 -56.22010040 -544.79797363 6.000000
-160.31799316 -57.63019943 -546.52697754 6.000000
-162.11700439 -55.80490112 -552.59497070 6.000000
-162.75999451 -59.18569946 -548.14202881 6.000000
-163.83500671 -58.21279907 -550.88598633 6.000000
-144.12100220 -55.11270142 -504.68701172 6.000000
-166.44500732 -61.47710037 -550.20202637 6.000000
-96.13950348 -76.25810242 -498.76998901 6.000000
-166.38600159 -57.33689880 -554.23901367 6.000000
-144.03799438 -53.28490067 -538.66497803 6.000000
-100.12100220 -72.86799622 -503.13198853 6.000000
-104.03099823 -71.98880005 -502.71200562 6.000000
-147.93600464 -52.54159927 -542.86901855 6.000000
-107.98000336 -70.91200256 -503.31600952 6.000000
-151.94299316 -54.17879868 -540.75299072 6.000000
-138.03999329 -56.09529877 -524.71099854 6.000000
-121.85399628 -63.37659836 -510.39599609 6.000000
-152.21499634 -55.42259979 -534.62597656 6.000000
-155.84800720 -56.19269943 -540.75000000 6.000000
-156.42599487 -57.39749908 -536.58099365 6.000000
-159.62699890 -58.42720032 -542.86102295 6.000000
-158.84500122 -59.20220184 -538.46697998 6.000000
-110.02400208 -63.96939850 -514.70501709 6.000000
-168.03599548 -59.93030167 -552.67102051 6.000000
-147.83700562 -56.57770157 -508.66598511 6.000000
-169.75300598 -64.24259949 -551.01702881 6.000000
-169.49000549 -58.70800018 -555.33099365 6.000000
-98.12409973 -74.31919861 -500.83401489 6.000000
-101.91000366 -73.42510223 -500.47198486 6.000000
-102.13300323 -71.11990356 -506.13598633 6.000000
-158.20100403 -53.38899994 -552.47399902 6.000000
-149.51899719 -57.19530106 -512.79699707 6.000000
-172.33999634 -61.55059814 -554.24401855 6.000000
-173.90600586 -60.13370132 -556.85400391 6.000000
-173.63699341 -64.40540314 -553.33697510 6.000000
-159.09800720 -62.46329880 -530.84100342 6.000000
-161.23599243 -64.50900269 -534.89599609 6.000000
-113.98799896 -76.03220367 -496.72299194 6.000000
-144.45100403 -39.30899811 -581.03100586 6.000000
-144.22099304 -41.48740005 -584.93402100 6.000000
-161.81100464 -54.98830032 -604.44097900 6.000000
-160.01300049 -55.52489853 -608.74298096 6.000000
-147.56399536 -40.56039810 -578.55297852 6.000000
-176.21000671 -57.43410110 -586.64202881 6.000000
-192.14300537 -65.70850372 -590.75701904 6.000000
-173.99899292 -56.11320114 -590.70202637 6.000000
-147.64999390 -42.73929977 -584.36297607 6.000000
-166.03199768 -55.32320023 -604.68499756 6.000000
-158.15800476 -49.70989990 -584.75598145 6.000000
-191.90100098 -66.19709778 -594.62298584 6.000000
-158.61099243 -49.08779907 -580.81402588 6.000000
-177.96499634 -54.51829910 -616.73400879 6.000000
-150.51499939 -43.29759979 -580.85699463 6.000000
-165.98699951 -55.63769913 -608.71502686 6.000000
-181.93899536 -60.13399887 -586.66497803 6.000000
-160.24200439 -51.47100067 -586.81298828 6.000000
-180.41400146 -59.18109894 -592.65502930 6.000000
-178.06300354 -53.71350098 -620.63598633 6.000000
-151.18699646 -44.91820145 -584.14898682 6.000000
-161.52799988 -50.90430069 -582.53302002 6.000000
-163.63299561 -52.85729980 -586.44897461 6.000000
-184.23699951 -61.41910172 -588.78698730 6.000000
-182.01600647 -55.97000122 -616.69299316 6.000000
-167.98300171 -55.49700165 -612.72399902 6.000000
-165.56799316 -53.04489899 -582.59600830 6.000000
-173.96699524 -54.55870056 -610.66400146 6.000000
-154.10299683 -45.84239960 -580.70697021 6.000000
-182.33299255 -55.34289932 -620.50097656 6.000000
-157.92199707 -54.57939911 -602.54699707 6.000000
-186.47799683 -63.16930008 -590.96099854 6.000000
-156.45199585 -47.36280060 -578.73199463 6.000000
-167.99800110 -54.01649857 -580.68402100 6.000000
-167.83900452 -54.74769974 -586.70599365 6.000000
-156.04100037 -47.92409897 -582.69702148 6.000000
-184.04699707 -55.88809967 -624.68103027 6.000000
-190.07299805 -63.80789948 -588.73901367 6.000000
-185.44999695 -56.74480057 -618.83398438 6.000000
-187.81900024 -64.30860138 -594.65802002 6.000000
-172.14700317 -55.55709839 -582.68200684 6.000000
-187.79699707 -58.14929962 -622.69500732 6.000000
-193.95300293 -60.39519882 -572.66497803 6.000000
-172.12899780 -55.36610031 -594.65002441 6.000000
-193.97200012 -60.49110031 -576.65899658 6.000000
-163.90199280 -54.17269897 -556.80102539 6.000000
-170.31399536 -57.36259842 -558.38500977 6.000000
-71.90989685 -98.05709839 -489.21600342 6.000000
-144.18699646 -43.42190170 -588.86602783 6.000000
-170.28700256 -55.34730148 -562.55401611 6.000000
-184.24200439 -59.18199921 -566.52502441 6.000000
-176.00399780 -56.03419876 -594.70098877 6.000000
-181.95700073 -58.28210068 -568.73199463 6.000000
-189.93099976 -66.07879639 -598.67602539 6.000000
-175.97999573 -56.08539963 -598.70397949 6.000000
-158.02600098 -51.94260025 -590.69000244 6.000000
-188.16900635 -59.55929947 -570.53601074 6.000000
-180.14100647 -57.75310135 -600.65698242 6.000000
-148.57000732 -44.98550034 -587.24902344 6.000000
-188.10800171 -59.53390121 -574.71301270 6.000000
-151.28599548 -47.06840134 -588.21502686 6.000000
-164.06300354 -53.84170151 -590.70001221 6.000000
-153.94599915 -48.08670044 -586.63201904 6.000000
-167.82699585 -54.61420059 -590.65600586 6.000000
-156.00399780 -49.99769974 -588.67401123 6.000000
-170.15699768 -54.97750092 -588.71899414 6.000000
-168.10600281 -55.31140137 -594.73901367 6.000000
-155.94000244 -50.10400009 -560.74597168 6.000000
-172.12600708 -55.23730087 -598.67700195 6.000000
-170.13800049 -55.42219925 -568.82299805 6.000000
-142.93899536 -33.27730179 -568.73498535 6.000000
-188.02499390 -59.94559860 -578.68902588 6.000000
-172.05799866 -55.70489883 -602.68298340 6.000000
-164.08900452 -53.75630188 -560.66802979 6.000000
-141.97200012 -31.98220062 -564.69702148 6.000000
-147.81900024 -46.34719849 -590.49401855 6.000000
-190.24200439 -67.72219849 -602.74102783 6.000000
-173.90800476 -56.34220123 -566.73101807 6.000000
-176.28700256 -55.51720047 -602.69201660 6.000000
-160.28900146 -53.30199814 -592.89599609 6.000000
-149.87399292 -48.40869904 -592.50799561 6.000000
-178.16099548 -57.53760147 -566.62298584 6.000000
-164.17700195 -53.48180008 -564.60601807 6.000000
-175.90100098 -56.45610046 -570.68798828 6.000000
-178.22799683 -57.40719986 -572.73199463 6.000000
-152.44999695 -49.05199814 -591.00402832 6.000000
-180.36199951 -57.24750137 -606.55200195 6.000000
-163.89799500 -54.57839966 -596.60797119 6.000000
-154.50399780 -50.93550110 -593.01397705 6.000000
-181.70399475 -58.39649963 -572.21801758 6.000000
-184.24800110 -58.88359833 -570.65502930 6.000000
-163.88600159 -52.30720139 -568.73400879 6.000000
-166.31500244 -53.28499985 -572.60900879 6.000000
-158.12300110 -53.58110046 -596.77099609 6.000000
-172.18200684 -55.08679962 -606.56097412 6.000000
-170.27499390 -54.75519943 -574.63598633 6.000000
-176.15100098 -55.10150146 -608.57299805 6.000000
-161.91799927 -54.57580185 -600.69799805 6.000000
-173.82200623 -56.56029892 -574.68902588 6.000000
-166.06700134 -55.02970123 -598.72802734 6.000000
-145.71600342 -38.12929916 -566.68902588 6.000000
-146.82400513 -39.12120056 -572.77502441 6.000000
-78.12310028 -91.70860291 -491.95498657 6.000000
-151.89500427 -50.26480103 -594.57098389 6.000000
-176.21600342 -57.29320145 -576.74200439 6.000000
-179.96200562 -58.26969910 -576.65802002 6.000000
-184.19200134 -59.03219986 -574.78497314 6.000000
-182.25599670 -59.21509933 -578.79199219 6.000000
-185.78399658 -60.67499924 -582.53302002 6.000000
-190.14999390 -61.35760117 -580.85797119 6.000000
-142.93800354 -35.02059937 -574.95898438 6.000000
-144.47300720 -37.33869934 -576.78997803 6.000000
-154.00100708 -52.06129837 -596.61297607 6.000000
-154.17700195 -53.31560135 -600.74401855 6.000000
-81.93810272 -86.01730347 -494.88598633 6.000000
-73.95290375 -73.76840210 -498.28201294 6.000000
-90.08010101 -71.89270020 -502.56201172 6.000000
-4.19912004 -217.94999695 -471.11300659 6.000000
4.07159996 -197.34300232 -473.57101440 6.000000
-24.05380058 -171.88600159 -469.97299194 6.000000
-150.12699890 -259.84500122 -646.10400391 6.000000
-153.93899536 -255.95500183 -647.20800781 6.000000
-153.84399414 -259.91900635 -647.18798828 6.000000
-158.60400391 -252.53199768 -645.90899658 6.000000
-158.22300720 -256.11099243 -648.44897461 6.000000
-160.79800415 -254.58599854 -649.78497314 6.000000
-146.02699280 -263.93399048 -644.65301514 6.000000
-157.17199707 -259.12899780 -649.79199219 6.000000
-149.95599365 -256.14099121 -647.48699951 6.000000
-83.80719757 -64.06269836 -501.11999512 6.000000
-52.17440033 -121.82499695 -480.13299561 6.000000
-53.64160156 -91.74469757 -500.13900757 6.000000
-54.29359818 -88.02349854 -501.07400513 6.000000
-149.80900574 -42.22570038 -576.67199707 6.000000
-202.03599548 -67.89969635 -592.70501709 6.000000
-152.16299438 -43.74629974 -574.68298340 6.000000
-161.71800232 -50.50279999 -576.66302490 6.000000
-57.54489899 -83.68679810 -499.89001465 6.000000
-197.89500427 -60.86780167 -576.91998291 6.000000
-159.94799805 -50.08739853 -570.71801758 6.000000
-196.01199341 -61.70209885 -580.78802490 6.000000
-201.65499878 -70.90299988 -596.19897461 6.000000
-200.02400208 -61.59840012 -580.85498047 6.000000
-178.47999573 -57.21269989 -596.59197998 6.000000
-202.05599976 -61.03430176 -576.59399414 6.000000
-203.68299866 -72.89569855 -597.96099854 6.000000
-185.44799805 -62.62419891 -598.78399658 6.000000
-158.00500488 -47.98210144 -574.69097900 6.000000
-185.17199707 -62.33779907 -594.75402832 6.000000
-206.11900330 -69.59040070 -593.00299072 6.000000
-57.94150162 -91.89939880 -496.59600830 6.000000
-201.92300415 -62.73099899 -584.13098145 6.000000
-204.08200073 -61.45090103 -580.91802979 6.000000
-194.07000732 -67.86000061 -596.73199463 6.000000
-59.30530167 -87.53820038 -497.63299561 6.000000
-208.05700684 -71.82409668 -594.79199219 6.000000
-207.90400696 -74.29850006 -598.49798584 6.000000
-196.05999756 -69.88500214 -598.72198486 6.000000
-198.05499268 -67.63259888 -592.85101318 6.000000
-153.88499451 -58.17810059 -522.78002930 6.000000
-151.96800232 -46.01509857 -562.71502686 6.000000
-167.79899597 -54.51969910 -566.73797607 6.000000
-204.01699829 -65.80930328 -588.88598633 6.000000
-154.38900757 -47.31039810 -564.41302490 6.000000
-179.65299988 -58.72439957 -588.71600342 6.000000
-193.96699524 -64.41500092 -588.46099854 6.000000
-167.78399658 -54.64730072 -560.83898926 6.000000
-208.11900330 -65.48049927 -588.84698486 6.000000
-149.94000244 -42.02249908 -570.68200684 6.000000
-148.47300720 -41.51399994 -566.58502197 6.000000
-207.92300415 -68.37120056 -590.68902588 6.000000
-195.97599792 -66.16200256 -590.58398438 6.000000
-198.02400208 -63.96220016 -586.68103027 6.000000
-187.97200012 -62.14479828 -586.64001465 6.000000
-200.02499390 -65.97250366 -588.68597412 6.000000
-209.99299622 -70.04730225 -592.58801270 6.000000
-211.75999451 -67.02059937 -590.11499023 6.000000
-213.68200684 -70.74340057 -591.92901611 6.000000
-200.24600220 -85.77539825 -646.70599365 6.000000
-199.63900757 -84.16590118 -642.64099121 6.000000
-201.87500000 -88.06210327 -644.68902588 6.000000
-204.75000000 -81.22090149 -613.05102539 6.000000
-201.25300598 -86.41079712 -640.54699707 6.000000
-207.30299377 -106.06800079 -650.45800781 6.000000
-221.75900269 -126.18000031 -639.93701172 6.000000
-206.71800232 -107.86599731 -652.92602539 6.000000
-201.88499451 -78.11640167 -610.57702637 6.000000
-221.42399597 -108.62000275 -629.90802002 6.000000
-211.05900574 -104.74900055 -635.92401123 6.000000
-217.43800354 -95.69170380 -613.51800537 6.000000
-211.67399597 -102.20500183 -632.36102295 6.000000
-199.91799927 -119.93299866 -664.59197998 6.000000
-194.87600708 -74.65440369 -646.01000977 6.000000
-215.49499512 -92.29370117 -612.42297363 6.000000
-194.88999939 -77.51190186 -649.02099609 6.000000
-219.56799316 -112.35199738 -633.99499512 6.000000
-204.12199402 -133.93200684 -658.76202393 6.000000
-219.53100586 -155.96400452 -645.55499268 6.000000
-5.92570019 -207.94200134 -470.17800903 6.000000
-211.60200500 -143.98699951 -648.13897705 6.000000
-4.07749987 -213.92999268 -470.95001221 6.000000
-200.17599487 -64.35299683 -596.73400879 6.000000
-213.95100403 -141.96400452 -646.55401611 6.000000
-222.07299805 -129.90199280 -640.83398438 6.000000
-205.69999695 -94.09619904 -638.61700439 6.000000
-204.34399414 -93.83380127 -648.74902344 6.000000
-199.23500061 -80.53179932 -626.73297119 6.000000
-210.88900757 -118.27200317 -644.01000977 6.000000
-204.07899475 -97.93499756 -656.70800781 6.000000
-196.90600586 -77.18579865 -624.56896973 6.000000
-202.79699707 -101.71800232 -660.97601318 6.000000
-203.26600647 -88.67669678 -638.55902100 6.000000
-212.98899841 -104.95300293 -633.57397461 6.000000
-193.98699951 -71.97350311 -644.67401123 6.000000
-203.10600281 -90.41269684 -646.42602539 6.000000
-200.37100220 -124.00099945 -663.03302002 6.000000
-213.72599792 -79.95570374 -602.10699463 6.000000
-207.31500244 -113.93900299 -652.36798096 6.000000
-7.27877998 -213.78900146 -469.61999512 6.000000
-197.15299988 -80.44259644 -646.41497803 6.000000
-209.97900391 -121.95500183 -646.65698242 6.000000
-204.74600220 -92.20629883 -642.18499756 6.000000
-206.60699463 -93.64759827 -634.86602783 6.000000
-205.79899597 -135.96899414 -656.54302979 6.000000
-206.63800049 -81.15309906 -608.92602539 6.000000
-217.35200500 -94.39769745 -610.33502197 6.000000
-223.64900208 -112.55400085 -631.96502686 6.000000
-211.74400330 -96.20179749 -626.51098633 6.000000
-197.33399963 -78.32340240 -642.52398682 6.000000
-205.30000305 -100.05799866 -654.50500488 6.000000
-216.70799255 -91.56710052 -609.05700684 6.000000
-206.86000061 -97.56449890 -638.86102295 6.000000
-195.59500122 -72.27239990 -640.53399658 6.000000
-215.86700439 -104.12200165 -630.51202393 6.000000
-204.47200012 -89.30229950 -634.70599365 6.000000
-209.83799744 -115.96199799 -646.61700439 6.000000
-208.30099487 -91.69059753 -624.81201172 6.000000
-204.55700684 -103.77700043 -658.86102295 6.000000
-215.85299683 -145.97700500 -646.25701904 6.000000
-202.10099792 -127.94499969 -660.75299072 6.000000
-214.14100647 -107.82599640 -634.84899902 6.000000
-212.14700317 -121.90100098 -642.84002686 6.000000
-203.77099609 -63.28359985 -594.54101563 6.000000
-207.31300354 -77.94429779 -607.71002197 6.000000
-203.63099670 -123.94200134 -658.39599609 6.000000
-210.17599487 -137.93299866 -648.82000732 6.000000
-198.77999878 -79.31490326 -622.72497559 6.000000
-217.25599670 -106.71199799 -631.72998047 6.000000
-208.53399658 -97.78440094 -632.88598633 6.000000
-206.25999451 -103.90499878 -652.75402832 6.000000
-208.06700134 -99.92849731 -636.70300293 6.000000
-197.64300537 -78.16929626 -638.65197754 6.000000
-191.14300537 -68.50499725 -612.76397705 6.000000
-211.97700500 -93.99430084 -622.66497803 6.000000
-200.60200500 -81.39440155 -620.78497314 6.000000
-215.99699402 -149.95300293 -646.61602783 6.000000
-205.63400269 -108.00700378 -656.55102539 6.000000
-189.24400330 -66.36470032 -610.41699219 6.000000
-205.01800537 -126.04399872 -656.06500244 6.000000
-196.44200134 -73.79000092 -636.72802734 6.000000
-205.49800110 -90.30539703 -630.58197021 6.000000
-218.42100525 -147.86999512 -645.52099609 6.000000
-210.40100098 -91.61869812 -620.89801025 6.000000
-207.89399719 -78.10800171 -604.48901367 6.000000
-227.73399353 -114.59500122 -631.95898438 6.000000
-207.27099609 -92.98059845 -629.14202881 6.000000
-187.41900635 -64.44499969 -608.78198242 6.000000
-198.24400330 -77.73639679 -618.73400879 6.000000
-214.06100464 -125.92700195 -642.76098633 6.000000
-216.21600342 -123.82599640 -641.10998535 6.000000
-192.19799805 -69.80829620 -608.70800781 6.000000
-221.56700134 -148.03999329 -643.89599609 6.000000
-217.80999756 -128.21600342 -641.96197510 6.000000
-208.83599854 -102.38600159 -638.32501221 6.000000
-200.61500549 -79.47090149 -616.97100830 6.000000
-197.70399475 -76.04740143 -630.68402100 6.000000
-218.52499390 -151.85499573 -645.65502930 6.000000
-214.87600708 -95.26409912 -618.94799805 6.000000
-199.74699402 -79.77670288 -630.18200684 6.000000
-188.37600708 -65.58570099 -604.75000000 6.000000
-213.20899963 -92.84839630 -618.31298828 6.000000
-202.83000183 -89.26879883 -654.72198486 6.000000
-191.26899719 -61.25699997 -628.86199951 6.000000
-201.68099976 -88.17680359 -648.68701172 6.000000
-189.43699646 -60.58470154 -620.98901367 6.000000
-190.62699890 -65.54709625 -614.53900146 6.000000
-215.04800415 -93.91979980 -616.13598633 6.000000
-201.07200623 -78.82949829 -614.05798340 6.000000
-193.82299805 -70.20059967 -602.50097656 6.000000
-213.43299866 -90.51679993 -614.36798096 6.000000
-225.97500610 -124.02200317 -638.43499756 6.000000
-218.34899902 -109.70600128 -633.12298584 6.000000
-224.08999634 -119.79399872 -636.95001221 6.000000
-207.81700134 -104.00000000 -646.62902832 6.000000
-199.48300171 -142.17900085 -666.02099609 6.000000
-208.68899536 -107.80000305 -646.92102051 6.000000
-207.29299927 -171.75000000 -649.72399902 6.000000
-211.73399353 -147.97900391 -648.23901367 6.000000
-209.89700317 -169.91799927 -648.44897461 6.000000
-218.48800659 -105.41300201 -629.16900635 6.000000
-206.65100098 -127.87899780 -652.99499512 6.000000
-199.14700317 -146.15800476 -668.07202148 6.000000
-221.99299622 -105.98500061 -626.66302490 6.000000
-228.10299683 -121.67400360 -637.17199707 6.000000
-205.97999573 -89.97799683 -626.67602539 6.000000
-209.68899536 -173.84500122 -648.00701904 6.000000
-225.14599609 -109.01399994 -627.70697021 6.000000
-199.16099548 -129.96499634 -663.64099121 6.000000
-209.86099243 -105.99500275 -640.64599609 6.000000
-9.77861977 -205.89599609 -469.73300171 6.000000
-199.60000610 -150.04299927 -668.43798828 6.000000
-218.33599854 -121.57700348 -639.56799316 6.000000
-212.20300293 -111.86100006 -638.89898682 6.000000
-229.95199585 -118.13700104 -634.47399902 6.000000
-226.25199890 -107.70800018 -624.78302002 6.000000
-222.15600586 -103.77600098 -622.74798584 6.000000
-211.48399353 -108.15100098 -638.18499756 6.000000
-202.03599548 -149.94500732 -664.69500732 6.000000
-225.69200134 -106.31300354 -620.58599854 6.000000
-221.96899414 -122.03500366 -638.47601318 6.000000
-202.20399475 -153.91000366 -666.77001953 6.000000
-214.56100464 -101.53600311 -629.20098877 6.000000
-217.98500061 -159.96000671 -646.57397461 6.000000
-205.79600525 -187.72300720 -646.21301270 6.000000
-214.19500732 -163.91499329 -647.63299561 6.000000
-208.35099792 -186.20300293 -645.30401611 6.000000
-214.16200256 -115.83000183 -638.95001221 6.000000
-203.89700317 -93.99810028 -652.67401123 6.000000
-216.30200195 -131.67399597 -643.51202393 6.000000
-198.94500732 -133.78300476 -663.73699951 6.000000
-226.22000122 -129.83299255 -639.51300049 6.000000
-223.94900513 -116.09100342 -634.46997070 6.000000
-201.16900635 -140.19799805 -663.75799561 6.000000
-220.64599609 -101.09200287 -614.81799316 6.000000
-218.10099792 -165.91200256 -647.08001709 6.000000
-205.55999756 -98.08260345 -650.58099365 6.000000
-211.82499695 -151.96000671 -648.37597656 6.000000
-201.16700745 -132.05200195 -661.86297607 6.000000
-220.67500305 -161.71600342 -645.73400879 6.000000
-204.30099487 -115.97399902 -658.84197998 6.000000
-204.83799744 -112.06199646 -659.06896973 6.000000
-219.34300232 -98.47730255 -612.39599609 6.000000
-1.91103005 -221.96000671 -472.36099243 6.000000
-220.18899536 -135.88800049 -643.05297852 6.000000
-205.64500427 -96.06189728 -646.62500000 6.000000
-229.97999573 -131.94700623 -638.57598877 6.000000
-217.83799744 -118.16500092 -638.21398926 6.000000
-206.68899536 -99.76699829 -646.83697510 6.000000
-221.61799622 -100.24800110 -610.41198730 6.000000
-209.88400269 -133.97300720 -648.56500244 6.000000
-219.83000183 -132.06300354 -642.21002197 6.000000
-202.15800476 -157.92900085 -668.73797607 6.000000
-216.10699463 -113.87599945 -636.84197998 6.000000
-213.63299561 -155.93200684 -647.85198975 6.000000
-211.16000366 -98.90460205 -629.91699219 6.000000
-229.97900391 -127.97799683 -638.48498535 6.000000
-222.41200256 -133.81900024 -641.64697266 6.000000
-222.27299500 -99.78559875 -606.83300781 6.000000
-212.02299500 -135.94799805 -646.68499756 6.000000
-212.31599426 -117.79000092 -641.04498291 6.000000
-202.14500427 -179.99099731 -652.78100586 6.000000
-213.64300537 -159.88699341 -647.77197266 6.000000
-202.50399780 -161.91000366 -668.78497314 6.000000
-229.88600159 -124.12999725 -637.84698486 6.000000
-207.59100342 -100.13800049 -640.57501221 6.000000
-219.79400635 -116.25399780 -636.19097900 6.000000
-205.13699341 -179.61199951 -649.69897461 6.000000
-214.33900452 -137.79499817 -645.59698486 6.000000
-203.27099609 -183.59399414 -649.91302490 6.000000
-212.44799805 -131.76899719 -645.49700928 6.000000
-203.06300354 -163.94700623 -664.48901367 6.000000
-225.87899780 -133.97700500 -640.34698486 6.000000
-206.65199280 -182.25100708 -647.70697021 6.000000
-203.77299500 -163.95599365 -660.61798096 6.000000
-202.82299805 -168.05700684 -664.73199463 6.000000
-215.77499390 -100.21299744 -626.49597168 6.000000
-214.33799744 -97.67150116 -624.89501953 6.000000
-218.69099426 -101.21199799 -623.09301758 6.000000
-216.31500244 -97.67120361 -620.79602051 6.000000
-218.48599243 -99.45320129 -618.85302734 6.000000
-210.35800171 -182.08999634 -645.19500732 6.000000
-229.52000427 -112.42600250 -628.30902100 6.000000
-204.69400024 -155.90600586 -658.95202637 6.000000
-201.56900024 -136.07299805 -662.16400146 6.000000
-216.10000610 -153.93899536 -646.87597656 6.000000
-227.86999512 -110.10900116 -626.58697510 6.000000
-207.70700073 -177.81399536 -648.22100830 6.000000
-230.40100098 -111.48899841 -624.86798096 6.000000
-176.05099487 -212.01100159 -652.60302734 6.000000
-228.53999329 -109.40599823 -620.79998779 6.000000
-175.93499756 -215.66200256 -655.20599365 6.000000
-179.65100098 -211.31500244 -653.47399902 6.000000
-231.95399475 -122.04900360 -636.50701904 6.000000
-184.05599976 -219.94299316 -660.56701660 6.000000
-184.10800171 -223.91900635 -660.28802490 6.000000
-232.03799438 -115.91699982 -630.71197510 6.000000
-207.22399902 -159.91200256 -652.00500488 6.000000
-217.94000244 -137.99099731 -644.45202637 6.000000
-172.00399780 -218.04800415 -656.48297119 6.000000
-184.73300171 -204.95799255 -650.09497070 6.000000
-221.68299866 -157.98500061 -644.16497803 6.000000
-186.34100342 -202.45199585 -646.48199463 6.000000
-209.35899353 -161.91200256 -649.60797119 6.000000
-173.97999573 -222.07400513 -658.09997559 6.000000
-177.93600464 -217.80200195 -657.01800537 6.000000
-178.08399963 -221.98199463 -658.28198242 6.000000
-191.81300354 -203.99699402 -661.09497070 6.000000
-191.35699463 -199.48899841 -656.81298828 6.000000
-170.07499695 -223.89300537 -659.03900146 6.000000
-233.72200012 -118.41699982 -632.21301270 6.000000
-180.11099243 -208.12899780 -650.50897217 6.000000
-182.02900696 -226.02499390 -659.28302002 6.000000
-178.00900269 -229.89500427 -658.45501709 6.000000
-174.02499390 -225.94799805 -658.68902588 6.000000
-181.88800049 -205.61799622 -649.03601074 6.000000
-222.12199402 -139.92399597 -642.87799072 6.000000
-183.05799866 -208.91999817 -653.73498535 6.000000
-211.78199768 -165.91400146 -648.08001709 6.000000
-178.02600098 -225.94700623 -658.68200684 6.000000
-229.66400146 -137.84199524 -638.16601563 6.000000
-226.00199890 -139.94700623 -640.65600586 6.000000
-218.14100647 -141.90699768 -644.98101807 6.000000
