137.83900452 221.15699768 -224.81100464 8.000000
140.55000305 243.97099304 -266.81600952 8.000000
137.36599731 238.47799683 -245.37600708 8.000000
133.62300110 242.79100037 -245.12699890 8.000000
131.47300720 244.71499634 -243.19400024 8.000000
133.54499817 248.50700378 -267.11199951 8.000000
136.00700378 247.35299683 -265.00900269 8.000000
130.13299561 247.07899475 -242.81799316 8.000000
131.41499329 246.68699646 -245.22500610 8.000000
183.65499878 230.17300415 -280.83801270 8.000000
149.18099976 246.36700439 -295.06698608 8.000000
167.56100464 224.04800415 -227.09800720 8.000000
183.32099915 198.44299316 -326.70401001 8.000000
158.68200684 139.01600647 -347.50201416 8.000000
159.55200195 136.87100220 -349.16900635 8.000000
185.70700073 168.83900452 -341.06900024 8.000000
175.29899597 202.52900696 -330.67999268 8.000000
187.87500000 201.06799316 -321.37701416 8.000000
152.78900146 131.22200012 -335.16000366 8.000000
181.27600098 198.47099304 -328.60900879 8.000000
169.34199524 228.15100098 -294.91598511 8.000000
148.51499939 119.22699738 -339.65100098 8.000000
151.76899719 110.85900116 -344.71899414 8.000000
194.02299500 185.35899353 -331.49700928 8.000000
175.66700745 156.96000671 -338.43798828 8.000000
177.66200256 152.73300171 -337.82998657 8.000000
179.76600647 156.87399292 -338.78601074 8.000000
157.36000061 124.81900024 -347.45999146 8.000000
193.92799377 187.29899597 -329.33801270 8.000000
158.89300537 141.06100464 -345.15499878 8.000000
153.62899780 112.82199860 -345.30999756 8.000000
167.86500549 144.36999512 -335.86300659 8.000000
156.73899841 135.40899658 -337.06698608 8.000000
166.85200500 174.92900085 -350.82000732 8.000000
183.52499390 172.94999695 -339.45098877 8.000000
145.46000671 115.05300140 -339.25799561 8.000000
171.82000732 150.71299744 -337.67199707 8.000000
171.63900757 156.87199402 -338.93899536 8.000000
167.25399780 154.99299622 -340.53100586 8.000000
151.51300049 98.95069885 -342.79598999 8.000000
157.99200439 132.97200012 -348.56600952 8.000000
147.22599792 117.07900238 -337.40701294 8.000000
153.68499756 108.92800140 -344.72000122 8.000000
155.71000671 110.86599731 -344.98498535 8.000000
149.66999817 106.86599731 -344.91699219 8.000000
125.83999634 159.15899658 -166.86000061 8.000000
105.69400024 212.83399963 -215.09300232 8.000000
109.66899872 216.91299438 -216.98699951 8.000000
123.45300293 158.05000305 -163.69000244 8.000000
99.73840332 210.46099854 -213.26400757 8.000000
99.66549683 214.93699646 -219.02699280 8.000000
179.70100403 224.45700073 -245.32499695 8.000000
177.68899536 226.44599915 -249.29699707 8.000000
95.69229889 208.62699890 -209.16600037 8.000000
149.48699951 219.20100403 -210.86700439 8.000000
167.70300293 231.32200623 -258.95199585 8.000000
165.60400391 231.97900391 -261.30499268 8.000000
163.79899597 231.42700195 -258.93899536 8.000000
133.88999939 215.37600708 -216.52000427 8.000000
159.69400024 232.82200623 -259.09500122 8.000000
161.60800171 232.47599792 -261.18600464 8.000000
157.76699829 233.18200684 -261.00500488 8.000000
111.68499756 220.86300659 -219.06100464 8.000000
145.50599670 217.32800293 -210.80999756 8.000000
101.62100220 209.30000305 -210.82200623 8.000000
60.46649933 50.43450165 -142.87300110 8.000000
70.98829651 95.04620361 -160.97399902 8.000000
71.48509979 66.98549652 -146.96699524 8.000000
65.35679626 74.91780090 -161.06799316 8.000000
147.61199951 230.68699646 -245.18499756 8.000000
145.25100708 232.19299316 -245.41099548 8.000000
57.66830063 58.83800125 -161.11900330 8.000000
132.65600586 165.69299316 -186.33999634 8.000000
105.58699799 146.91799927 -149.03199768 8.000000
105.37000275 149.16700745 -152.93299866 8.000000
155.48300171 223.32400513 -215.10299683 8.000000
146.01800537 233.43600464 -248.83700562 8.000000
143.87500000 235.08500671 -248.98100281 8.000000
139.24099731 238.26899719 -247.53500366 8.000000
141.72599792 236.87600708 -249.07299805 8.000000
137.59199524 240.75100708 -249.14399719 8.000000
133.47999573 244.69000244 -247.19500732 8.000000
130.13900757 248.97599792 -244.99600220 8.000000
131.32200623 248.62300110 -247.21699524 8.000000
133.35499573 246.60099792 -249.21000671 8.000000
130.09800720 251.02499390 -246.99499512 8.000000
131.09700012 250.30999756 -249.33799744 8.000000
133.11599731 248.37199402 -251.26499939 8.000000
127.36699677 250.67100525 -241.27900696 8.000000
107.59600067 150.96299744 -153.03300476 8.000000
60.19490051 60.72269821 -162.46299744 8.000000
56.35499954 40.67900085 -164.13299561 8.000000
87.14769745 98.72019958 -142.58299255 8.000000
58.32979965 56.68619919 -162.35400391 8.000000
161.11599731 134.75900269 -349.98199463 8.000000
158.30299377 138.52699280 -341.13000488 8.000000
152.10400391 102.71499634 -343.62799072 8.000000
160.91700745 144.34199524 -341.49398804 8.000000
159.67199707 144.84800720 -345.08898926 8.000000
160.69099426 147.14799500 -344.87298584 8.000000
161.07200623 149.12300110 -346.99899292 8.000000
158.16299438 136.42799377 -335.32501221 8.000000
158.51199341 138.17700195 -337.41900635 8.000000
159.80999756 140.75900269 -339.14001465 8.000000
169.32299805 151.15400696 -338.30700684 8.000000
173.64399719 148.89199829 -336.80300903 8.000000
163.38699341 150.81700134 -351.36700439 8.000000
162.96899414 152.91299438 -349.49301147 8.000000
163.36700439 154.93899536 -347.01000977 8.000000
173.76100159 152.74600220 -337.66500854 8.000000
169.98100281 198.95199585 -337.32400513 8.000000
165.96099854 200.88200378 -343.18399048 8.000000
163.33000183 144.80700684 -351.43200684 8.000000
163.22200012 145.14500427 -338.76098633 8.000000
141.24499512 215.39199829 -210.70899963 8.000000
139.52799988 213.06799316 -208.89300537 8.000000
141.77999878 216.61199951 -213.17199707 8.000000
179.04400635 198.31599426 -330.15499878 8.000000
185.74299622 180.55700684 -336.67999268 8.000000
191.76300049 186.95100403 -331.21301270 8.000000
189.62800598 188.73899841 -330.95999146 8.000000
173.89700317 225.38200378 -297.29501343 8.000000
171.40800476 204.67300415 -332.82299805 8.000000
187.84300232 178.29800415 -338.38900757 8.000000
191.89700317 197.02699280 -321.33099365 8.000000
193.76800537 194.89999390 -321.17599487 8.000000
137.51400757 248.31900024 -277.21099854 8.000000
197.38699341 213.96600342 -302.88198853 8.000000
168.25799561 176.91600037 -347.27999878 8.000000
177.91299438 215.16499329 -313.32101440 8.000000
193.40100098 224.36000061 -286.84201050 8.000000
171.41799927 153.08000183 -338.30499268 8.000000
164.11199951 142.42399597 -335.63500977 8.000000
161.44400024 143.00500488 -338.95001221 8.000000
150.51699829 100.89700317 -343.93099976 8.000000
163.60000610 140.81799316 -351.21200562 8.000000
155.98699951 115.02999878 -346.08300781 8.000000
164.95899963 155.08799744 -342.53100586 8.000000
164.06100464 154.86900330 -350.83300781 8.000000
163.78300476 156.81199646 -349.08300781 8.000000
164.80200195 156.95199585 -352.20001221 8.000000
164.41900635 159.19599915 -348.94601440 8.000000
132.12699890 251.17999268 -255.02099609 8.000000
134.69700623 247.64999390 -254.86000061 8.000000
132.94299316 250.21600342 -257.15600586 8.000000
58.63119888 48.68349838 -164.04299927 8.000000
56.65399933 50.60609818 -162.35499573 8.000000
65.28309631 111.01699829 -162.39999390 8.000000
65.58409882 114.87000275 -162.88099670 8.000000
65.73860168 118.82700348 -163.17999268 8.000000
133.38200378 211.59700012 -210.63200378 8.000000
133.49499512 213.84700012 -214.36399841 8.000000
135.46800232 213.42199707 -212.77200317 8.000000
102.47399902 150.15699768 -159.52999878 8.000000
139.83799744 216.36900330 -215.31199646 8.000000
137.75999451 216.49699402 -217.28300476 8.000000
102.66000366 152.01199341 -162.33200073 8.000000
139.54400635 217.73599243 -218.55200195 8.000000
135.04600525 244.27499390 -249.49299622 8.000000
134.74600220 246.08200073 -251.40100098 8.000000
162.00100708 146.66299438 -341.31900024 8.000000
159.76499939 142.81100464 -343.10800171 8.000000
163.56100464 148.92900085 -340.96798706 8.000000
161.90100098 148.71800232 -343.21899414 8.000000
187.65899658 226.66499329 -287.00000000 8.000000
189.47999573 214.08900452 -308.51098633 8.000000
187.67700195 216.77600098 -305.06900024 8.000000
192.01899719 227.76100159 -283.61199951 8.000000
165.45599365 232.29400635 -283.02999878 8.000000
179.93099976 221.38000488 -301.38299561 8.000000
181.97500610 225.76300049 -291.53201294 8.000000
139.11599731 244.10899353 -263.22601318 8.000000
137.09100342 246.14999390 -263.19500732 8.000000
185.57499695 226.26100159 -288.81298828 8.000000
183.81500244 227.41000366 -287.36898804 8.000000
140.94599915 241.98399353 -259.27099609 8.000000
138.83099365 243.92700195 -259.20999146 8.000000
136.81500244 245.92500305 -259.19699097 8.000000
137.86099243 245.01699829 -261.06201172 8.000000
135.93200684 247.08999634 -261.04400635 8.000000
138.28999329 243.38900757 -254.88999939 8.000000
136.62500000 245.67100525 -256.87500000 8.000000
134.79299927 248.04899597 -257.14401245 8.000000
133.92900085 249.12899780 -259.08700562 8.000000
146.10299683 237.38800049 -258.85900879 8.000000
142.50599670 239.73100281 -256.80099487 8.000000
140.58599854 241.66999817 -256.79598999 8.000000
145.47900391 236.51899719 -255.21099854 8.000000
144.38499451 237.85299683 -256.74899292 8.000000
141.65299988 238.79499817 -253.11099243 8.000000
139.76899719 240.90899658 -253.05900574 8.000000
143.75500488 236.91900635 -253.05700684 8.000000
137.38999939 242.57200623 -251.24099731 8.000000
140.09300232 239.26300049 -250.86000061 8.000000
193.82899475 203.13600159 -317.55700684 8.000000
195.29499817 198.53599548 -318.56600952 8.000000
191.81700134 201.01100159 -319.37500000 8.000000
135.18400574 242.44599915 -247.34700012 8.000000
189.68800354 202.83000183 -319.08099365 8.000000
183.50399780 202.59500122 -322.84100342 8.000000
193.89399719 205.53199768 -316.03298950 8.000000
195.93699646 201.17300415 -317.67599487 8.000000
189.83399963 205.13900757 -317.44500732 8.000000
185.27699280 204.19900513 -320.39898682 8.000000
191.78900146 209.21400452 -313.44198608 8.000000
185.32299805 208.25199890 -316.44100952 8.000000
187.54800415 204.60800171 -318.81698608 8.000000
189.85600281 207.35499573 -315.67999268 8.000000
181.53300476 224.29200745 -294.80801392 8.000000
185.31300354 206.25700378 -318.44900513 8.000000
182.03799438 207.30599976 -319.51400757 8.000000
181.99000549 205.26800537 -321.49499512 8.000000
171.97500610 229.90800476 -285.38299561 8.000000
169.61500549 230.57899475 -285.03601074 8.000000
173.70599365 228.89700317 -287.10998535 8.000000
185.54699707 216.40899658 -306.86300659 8.000000
185.71600342 214.91000366 -309.14199829 8.000000
183.46000671 216.13800049 -308.66900635 8.000000
185.77600098 213.06700134 -311.27301025 8.000000
183.55400085 214.51300049 -310.83200073 8.000000
183.59300232 212.63400269 -312.90701294 8.000000
180.14500427 213.67999268 -313.78900146 8.000000
179.74600220 210.90299988 -317.14999390 8.000000
187.86099243 215.32299805 -307.37200928 8.000000
182.25900269 195.53700256 -329.99200439 8.000000
179.37100220 192.58599854 -332.47500610 8.000000
167.87899780 231.33399963 -283.20999146 8.000000
187.62699890 206.70100403 -316.94799805 8.000000
181.91799927 217.45199585 -307.45599365 8.000000
193.75799561 211.15100098 -311.29800415 8.000000
195.71000671 208.96800232 -313.21200562 8.000000
191.51300049 212.03700256 -310.46798706 8.000000
193.65699768 212.65699768 -309.01599121 8.000000
189.57000732 210.43800354 -312.73999023 8.000000
197.67799377 210.72099304 -311.04598999 8.000000
187.66099548 208.75500488 -315.01501465 8.000000
185.82000732 211.13200378 -313.35299683 8.000000
183.61500549 210.70100403 -314.96398926 8.000000
181.95500183 209.22200012 -317.41900635 8.000000
179.88099670 209.08799744 -319.29400635 8.000000
169.72000122 233.15600586 -273.15399170 8.000000
167.72099304 233.10000610 -275.13598633 8.000000
165.71299744 232.91700745 -277.09899902 8.000000
163.75100708 233.56900024 -266.99899292 8.000000
157.86999512 231.55799866 -254.89900208 8.000000
181.68299866 232.97900391 -271.11700439 8.000000
179.71699524 232.19000244 -274.96398926 8.000000
181.74400330 231.51100159 -277.30398560 8.000000
177.73800659 231.15299988 -279.18301392 8.000000
179.64500427 230.38699341 -280.93899536 8.000000
183.69799805 232.73699951 -273.07199097 8.000000
173.75700378 231.49600220 -279.26998901 8.000000
171.66000366 230.66700745 -283.05099487 8.000000
145.94900513 235.24299622 -252.92900085 8.000000
177.70100403 232.56700134 -273.04400635 8.000000
175.68400574 232.32000732 -275.00399780 8.000000
173.64500427 232.10800171 -276.94799805 8.000000
175.69200134 230.82800293 -281.08999634 8.000000
177.55700684 229.99699402 -282.82299805 8.000000
179.88000488 227.93499756 -287.51300049 8.000000
181.71600342 226.92700195 -289.13299561 8.000000
177.65100098 228.43400574 -286.96099854 8.000000
187.46699524 190.51199341 -330.71200562 8.000000
183.58500671 192.72200012 -330.85400391 8.000000
179.87100220 194.98599243 -331.40100098 8.000000
181.46200562 190.58700562 -332.42300415 8.000000
177.96099854 191.00799561 -333.55700684 8.000000
169.80700684 231.43899536 -281.26098633 8.000000
170.61199951 191.10699463 -339.79901123 8.000000
185.71299744 229.01499939 -283.17498779 8.000000
197.59100342 212.47000122 -306.97000122 8.000000
175.69299316 232.85600281 -271.09500122 8.000000
189.50799561 186.46099854 -332.51199341 8.000000
187.77600098 185.10400391 -333.49798584 8.000000
195.67100525 206.70199585 -314.92001343 8.000000
169.29699707 174.88299561 -344.89401245 8.000000
189.69299316 180.60400391 -336.82101440 8.000000
185.53100586 184.33999634 -334.30499268 8.000000
193.90100098 183.23399353 -333.51300049 8.000000
191.68499756 184.81500244 -333.06600952 8.000000
191.63099670 182.57000732 -334.79598999 8.000000
189.96099854 199.12300110 -321.42300415 8.000000
181.67199707 228.62399292 -285.01400757 8.000000
179.74800110 229.40600586 -283.28601074 8.000000
167.50399780 231.97500610 -280.99301147 8.000000
175.76499939 229.37100220 -285.27398682 8.000000
166.87300110 167.10000610 -346.76400757 8.000000
166.68800354 169.16799927 -348.57000732 8.000000
171.74899292 182.85000610 -341.13101196 8.000000
166.97700500 165.00199890 -344.84799194 8.000000
165.67900085 162.84300232 -347.08898926 8.000000
166.07699585 160.75900269 -343.42800903 8.000000
165.01600647 159.08500671 -344.85598755 8.000000
165.64900208 164.84500122 -349.07501221 8.000000
174.34100342 182.92500305 -337.82299805 8.000000
189.77400208 231.90299988 -276.88400269 8.000000
187.69900513 182.89500427 -335.16699219 8.000000
169.06300354 157.08700562 -340.04199219 8.000000
183.69200134 182.79499817 -334.97900391 8.000000
169.57400513 232.07000732 -278.95999146 8.000000
164.03199768 156.73500061 -345.14498901 8.000000
163.12300110 153.06399536 -344.80801392 8.000000
161.92999268 150.68099976 -345.12500000 8.000000
162.05900574 152.64500427 -347.11700439 8.000000
167.88000488 152.66600037 -339.45700073 8.000000
161.40199280 141.05299377 -336.93600464 8.000000
185.65899658 186.73800659 -332.92800903 8.000000
183.56900024 188.63699341 -332.61401367 8.000000
160.18499756 138.40299988 -335.56399536 8.000000
165.98300171 192.87199402 -347.19000244 8.000000
151.54200745 104.97799683 -344.31698608 8.000000
149.64500427 96.86260223 -343.03298950 8.000000
189.65800476 176.94200134 -339.23199463 8.000000
165.53799438 190.82899475 -349.04199219 8.000000
148.52499390 100.96199799 -345.97500610 8.000000
161.72999573 128.86399841 -348.97399902 8.000000
159.86799622 126.93800354 -348.60800171 8.000000
157.57499695 222.86300659 -211.08900452 8.000000
157.70799255 224.76300049 -215.08000183 8.000000
173.69400024 232.86199951 -273.09698486 8.000000
171.67700195 232.62500000 -275.05200195 8.000000
185.63299561 233.93400574 -267.09201050 8.000000
189.72599792 233.83900452 -267.06900024 8.000000
183.61999512 233.81300354 -265.06100464 8.000000
187.72599792 233.87800598 -265.09500122 8.000000
171.70899963 233.46499634 -269.07800293 8.000000
177.67799377 233.17999268 -269.14700317 8.000000
147.98599243 235.50100708 -256.87899780 8.000000
189.68899536 233.33099365 -273.19799805 8.000000
165.69299316 228.83599854 -247.09300232 8.000000
163.72099304 229.02600098 -249.05200195 8.000000
183.64100647 233.54600525 -269.17001343 8.000000
153.41799927 230.15400696 -247.29299927 8.000000
149.58099365 230.57499695 -247.14700317 8.000000
149.20399475 231.96099854 -249.51300049 8.000000
151.83999634 220.50700378 -211.34100342 8.000000
161.65299988 228.60800171 -247.14500427 8.000000
165.77699280 229.35800171 -250.89599609 8.000000
163.61700439 230.04400635 -253.27600098 8.000000
151.61799622 198.81100464 -203.25000000 8.000000
149.83700562 233.13499451 -252.97799683 8.000000
149.42799377 234.21299744 -255.29699707 8.000000
161.59800720 225.74200439 -215.17799377 8.000000
161.69299316 225.06799316 -219.13499451 8.000000
163.68899536 224.78199768 -221.08599854 8.000000
165.70799255 225.03500366 -219.12300110 8.000000
159.51899719 225.70500183 -213.22799683 8.000000
108.09500122 152.10899353 -155.33500671 8.000000
104.13099670 150.51199341 -157.36300659 8.000000
106.12999725 154.25900269 -161.47700500 8.000000
104.51799774 151.99899292 -159.58999634 8.000000
169.58900452 143.07200623 -334.65899658 8.000000
109.74400330 154.69999695 -159.17799377 8.000000
135.58900452 211.05000305 -208.95899963 8.000000
133.64399719 208.95700073 -207.01400757 8.000000
147.55799866 219.18400574 -212.94099426 8.000000
143.27299500 217.83900452 -214.75000000 8.000000
139.37899780 215.37399292 -212.77699280 8.000000
137.57600403 213.07099915 -210.95500183 8.000000
149.94099426 220.30799866 -213.24299622 8.000000
151.14300537 80.44390106 -337.74700928 8.000000
155.81500244 224.03599548 -227.20399475 8.000000
151.61500549 223.24299622 -227.03500366 8.000000
151.69900513 222.81300354 -223.09599304 8.000000
155.69099426 224.78199768 -231.10400391 8.000000
153.61300659 223.27400208 -225.04699707 8.000000
155.64599609 225.49200439 -234.91200256 8.000000
155.76100159 229.43499756 -246.94700623 8.000000
151.69299316 230.83599854 -249.09199524 8.000000
155.59199524 230.38900757 -249.23500061 8.000000
143.61700439 221.33999634 -224.91200256 8.000000
145.92300415 221.64399719 -225.41700745 8.000000
143.71899414 222.27299500 -227.29699707 8.000000
147.72599792 222.52499390 -227.16400146 8.000000
145.69900513 223.05400085 -229.01499939 8.000000
153.74699402 231.08799744 -251.00000000 8.000000
145.89700317 220.25100708 -219.20199585 8.000000
149.46400452 221.42599487 -219.01199341 8.000000
151.90499878 222.23300171 -219.15800476 8.000000
147.58500671 221.15499878 -221.03700256 8.000000
149.73500061 222.63900757 -225.12399292 8.000000
149.64799500 223.25599670 -229.02400208 8.000000
145.77499390 225.24099731 -232.88900757 8.000000
151.23599243 231.92700195 -251.47599792 8.000000
157.75500488 224.34599304 -219.00599670 8.000000
152.13699341 221.85699463 -215.21800232 8.000000
153.72300720 222.74600220 -217.09100342 8.000000
149.97900391 221.95399475 -221.24699402 8.000000
148.03999329 221.66200256 -223.35800171 8.000000
147.92999268 233.31100464 -250.90400696 8.000000
159.74000549 224.51899719 -221.06100464 8.000000
161.67399597 224.44599915 -225.10000610 8.000000
132.03599548 249.57200623 -263.03399658 8.000000
161.79200745 229.60499573 -250.87699890 8.000000
159.77600098 229.40699768 -248.93899536 8.000000
157.63900757 230.61700439 -251.16200256 8.000000
141.61199951 219.28999329 -220.86799622 8.000000
139.64599609 219.92100525 -222.52699280 8.000000
179.64599609 227.30400085 -250.80999756 8.000000
145.66299438 220.95700073 -223.06100464 8.000000
165.67100525 230.48899841 -255.18699646 8.000000
163.67500305 225.52799988 -217.20300293 8.000000
147.99099731 220.12199402 -215.27099609 8.000000
169.69099426 232.53199768 -263.15399170 8.000000
179.64599609 233.57000732 -267.21899414 8.000000
171.69299316 233.02900696 -265.06100464 8.000000
175.67999268 233.14599609 -267.08499146 8.000000
165.70199585 233.01899719 -265.04998779 8.000000
177.70700073 232.69000244 -261.12600708 8.000000
181.67700195 233.01300049 -261.04000854 8.000000
179.64999390 233.23899841 -263.03100586 8.000000
177.63900757 233.38299561 -265.08401489 8.000000
175.63900757 222.55700684 -241.20500183 8.000000
175.68299866 232.97500610 -263.08401489 8.000000
163.67300415 232.68800354 -263.12799072 8.000000
171.69599915 231.46200562 -258.87500000 8.000000
171.64199829 232.18499756 -261.20599365 8.000000
130.19599915 253.20500183 -252.96400452 8.000000
185.66499329 233.49699402 -262.98498535 8.000000
175.79899597 231.94000244 -259.36801147 8.000000
179.75000000 232.11199951 -259.36499023 8.000000
55.43460083 70.84480286 -157.89999390 8.000000
55.76739883 62.81980133 -158.98100281 8.000000
56.08039856 68.61969757 -158.30000305 8.000000
47.89699936 48.84099960 -154.97500610 8.000000
48.58029938 44.74459839 -156.40499878 8.000000
49.37990189 40.88940048 -157.32499695 8.000000
51.91600037 36.80450058 -160.91400146 8.000000
47.78379822 54.83670044 -155.02299500 8.000000
53.47409821 42.86679840 -161.28300476 8.000000
49.09799957 36.90639877 -157.51400757 8.000000
51.56729889 44.85559845 -159.21899414 8.000000
49.57709885 46.84460068 -157.18899536 8.000000
51.12649918 38.96049881 -159.53500366 8.000000
53.94689941 46.79850006 -160.82299805 8.000000
54.00669861 58.74879837 -158.63200378 8.000000
55.71730042 52.83160019 -161.06500244 8.000000
56.21289825 56.74140167 -160.47900391 8.000000
53.68859863 54.83869934 -159.09800720 8.000000
54.21939850 40.72729874 -162.53599548 8.000000
43.22650146 66.70169830 -149.36199951 8.000000
58.25780106 64.71520233 -160.23300171 8.000000
50.79650116 48.92670059 -157.93800354 8.000000
52.97520065 38.98270035 -161.61000061 8.000000
52.41999817 56.71749878 -158.02900696 8.000000
53.20339966 60.95119858 -157.85600281 8.000000
47.82329941 58.83750153 -154.97099304 8.000000
49.98070145 52.81760025 -156.80200195 8.000000
53.13550186 48.96920013 -159.75000000 8.000000
52.05130005 50.77640152 -158.65699768 8.000000
48.97340012 56.85390091 -155.89799500 8.000000
50.49000168 42.73469925 -158.46200562 8.000000
51.57419968 58.85440063 -157.30000305 8.000000
179.55700684 154.55900574 -338.09600830 8.000000
177.66499329 148.84500122 -337.54299927 8.000000
181.66299438 158.83099365 -339.24700928 8.000000
187.72700500 172.81799316 -341.04998779 8.000000
85.99230194 165.36300659 -45.64239883 9.000000
15.83399963 128.96899414 53.16460037 9.000000
9.16847038 131.56399536 69.36499786 9.000000
11.73439980 132.75700378 68.83809662 9.000000
17.68070030 130.82299805 50.88069916 9.000000
19.62969971 132.75399780 48.75730133 9.000000
11.28470039 130.75000000 56.37179947 9.000000
11.59189987 134.80299377 54.82080078 9.000000
17.81800079 126.96800232 53.15790176 9.000000
12.16800022 137.04600525 53.47129822 9.000000
83.40429688 162.19799805 -50.72040176 9.000000
19.77729988 128.93099976 51.11619949 9.000000
13.26879978 132.69900513 54.51219940 9.000000
85.80359650 163.27099609 -47.46070099 9.000000
13.50300026 134.75300598 52.70410156 9.000000
83.63739777 167.05200195 -45.28170013 9.000000
21.36720085 126.20300293 52.05440140 9.000000
-0.16233900 107.91699982 92.05079651 9.000000
14.98419952 132.52900696 52.16260147 9.000000
1.63892996 109.13800049 91.19560242 9.000000
15.44810009 134.70300293 50.60860062 9.000000
21.74510002 130.92500305 49.07490158 9.000000
3.69706011 110.20999908 90.30239868 9.000000
13.09210014 126.71299744 56.10860062 9.000000
13.63710022 128.82400513 54.86709976 9.000000
1.89129996 105.63200378 95.50630188 9.000000
15.56760025 126.77200317 54.76699829 9.000000
11.06070042 128.69099426 58.25099945 9.000000
85.90720367 159.48100281 -51.64799881 9.000000
89.60800171 158.74499512 -51.02550125 9.000000
87.74250031 160.90699768 -49.15560150 9.000000
13.84529972 122.96600342 57.20320129 9.000000
88.04550171 157.38099670 -53.43840027 9.000000
5.46723986 123.07599640 75.05429840 9.000000
7.45387983 125.13800049 75.14929962 9.000000
11.71660042 124.73100281 74.80850220 9.000000
9.59527016 124.81099701 58.75740051 9.000000
7.62375021 121.64199829 79.55780029 9.000000
11.84350014 124.92099762 57.24919891 9.000000
11.44349957 123.02500153 58.55210114 9.000000
5.08606005 117.94899750 81.59470367 9.000000
7.70113993 119.43199921 81.43630219 9.000000
9.54347038 120.13999939 80.19190216 9.000000
3.97549009 115.71199799 83.96810150 9.000000
7.72199011 117.27799988 83.32939911 9.000000
3.77409005 114.15399933 86.29010010 9.000000
7.74707985 115.11299896 85.18489838 9.000000
5.62171984 112.17400360 88.23320007 9.000000
7.69940996 112.86499786 86.93499756 9.000000
2.09419990 103.67199707 97.62940216 9.000000
80.91560364 125.61100006 -115.79399872 9.000000
81.85359955 130.64300537 -110.91300201 9.000000
82.32150269 128.13400269 -114.46299744 9.000000
83.47160339 127.05000305 -117.27300262 9.000000
85.99150085 128.59599304 -118.89099884 9.000000
86.09860229 130.50199890 -116.83000183 9.000000
81.89289856 122.64099884 -120.95600128 9.000000
85.04609680 125.57900238 -121.61000061 9.000000
86.98120117 127.62899780 -121.66200256 9.000000
87.36840057 125.22699738 -125.30799866 9.000000
88.35639954 130.31700134 -120.65599823 9.000000
85.70349884 122.82299805 -127.08499908 9.000000
81.58560181 120.94000244 -123.14600372 9.000000
5.53764009 104.56199646 94.61569977 9.000000
3.76743007 107.17800140 93.23339844 9.000000
5.70024014 108.85700226 90.92849731 9.000000
1.75755000 112.72499847 86.81140137 9.000000
5.37369013 121.48600006 77.29830170 9.000000
7.46200991 123.48200226 77.36910248 9.000000
6.43108988 99.82420349 97.68039703 9.000000
-0.27700099 106.13800049 94.29239655 9.000000
1.62608004 111.01300049 89.08450317 9.000000
9.26580048 133.20500183 67.20300293 9.000000
11.33110046 135.49299622 67.19280243 9.000000
21.16460037 164.22399902 24.37439919 9.000000
23.40909958 128.25900269 50.01969910 9.000000
22.84690094 168.25700378 20.29310036 9.000000
82.36699677 161.62699890 -53.56840134 9.000000
23.49839973 138.24299622 44.03850174 9.000000
15.77849960 140.89799500 47.00590134 9.000000
16.08189964 143.02000427 45.30759811 9.000000
16.37360001 145.19299316 43.56549835 9.000000
84.34169769 159.77799988 -53.65560150 9.000000
29.75429916 159.44799805 25.44849968 9.000000
21.31999969 136.22999573 45.92959976 9.000000
23.88120079 135.46899414 46.08829880 9.000000
21.88769913 133.29899597 47.74179840 9.000000
80.16369629 133.90699768 -106.26699829 9.000000
24.19470024 165.47500610 21.56660080 9.000000
31.69580078 160.25900269 24.40439987 9.000000
25.69939995 136.90800476 45.01549911 9.000000
25.65519905 128.77099609 48.76490021 9.000000
26.09140015 165.77400208 19.83239937 9.000000
27.78339958 138.26600647 44.10810089 9.000000
17.63209915 124.77799988 54.79859924 9.000000
81.90920258 132.50300598 -108.80599976 9.000000
23.98789978 163.22900391 23.33530045 9.000000
18.43580055 145.27299500 41.76139832 9.000000
18.11569977 143.13900757 43.43349838 9.000000
29.70030022 157.44099426 27.45520020 9.000000
17.81940079 140.95599365 45.09329987 9.000000
83.96260071 132.49699402 -110.80999756 9.000000
26.05260086 163.72500610 21.79570007 9.000000
31.72699928 158.46099854 26.57830048 9.000000
23.91950035 161.13800049 25.25119972 9.000000
25.72360039 132.96400452 47.15299988 9.000000
27.69610023 135.43499756 45.81069946 9.000000
29.69050026 136.88600159 44.98809814 9.000000
31.73390007 156.64100647 28.73740005 9.000000
29.76099968 163.20899963 21.22940063 9.000000
27.83119965 161.48599243 23.51359940 9.000000
21.39489937 142.31399536 42.21960068 9.000000
25.92550087 159.72599792 25.79689980 9.000000
19.10960007 138.29200745 45.92350006 9.000000
31.71850014 154.72000122 30.80400085 9.000000
35.50289917 157.31199646 29.26239967 9.000000
13.41930008 142.74299622 48.71640015 9.000000
13.82740021 146.76400757 46.92959976 9.000000
77.43489838 129.22999573 -109.56199646 9.000000
14.31879997 148.76199341 45.00730133 9.000000
35.22859955 155.60499573 31.56419945 9.000000
77.44969940 127.16799927 -111.46499634 9.000000
37.88370132 156.46400452 32.64730072 9.000000
23.87890053 141.45100403 41.75989914 9.000000
35.87530136 152.56300354 34.65760040 9.000000
40.08990097 156.10699463 34.39950180 9.000000
35.77690125 150.74099731 36.77949905 9.000000
7.51503992 127.07199860 73.13780212 9.000000
10.25780010 130.84199524 59.33549881 9.000000
26.04850006 167.74200439 17.72209930 9.000000
82.03690338 159.46000671 -59.21319962 9.000000
83.82050323 130.71400452 -112.97599792 9.000000
35.60129929 159.09199524 27.09799957 9.000000
83.65440369 158.78799438 -57.06869888 9.000000
7.30927992 104.47299957 92.46849823 9.000000
29.40679932 166.01400757 18.14699936 9.000000
15.19279957 150.68400574 42.65250015 9.000000
85.38349915 156.50199890 -58.97389984 9.000000
85.87449646 157.36199951 -55.38109970 9.000000
19.98310089 147.18200684 39.41680145 9.000000
16.12969971 149.09399414 41.25389862 9.000000
87.21589661 156.10099792 -56.79639816 9.000000
31.70229912 164.92100525 18.97439957 9.000000
21.48450089 144.52000427 40.47439957 9.000000
17.59849930 134.76499939 48.76139832 9.000000
85.16660309 135.58599854 -107.60700226 9.000000
85.41269684 137.32299805 -105.44799805 9.000000
79.83470154 165.11199951 -51.27389908 9.000000
89.03140259 154.16000366 -58.82720184 9.000000
88.10199738 138.16600037 -106.66000366 9.000000
21.29990005 166.50900269 22.59099960 9.000000
89.35310364 137.38400269 -109.37599945 9.000000
31.62689972 162.09100342 22.27750015 9.000000
19.79630089 135.08000183 47.26480103 9.000000
33.70119858 163.05700684 21.09029961 9.000000
21.93120003 170.98599243 19.04330063 9.000000
89.55989838 141.07699585 -103.23600006 9.000000
83.23480225 164.00799561 -48.38280106 9.000000
81.54060364 160.63000488 -56.99369812 9.000000
25.66029930 142.65299988 40.64910126 9.000000
23.69589996 170.83299255 16.91570091 9.000000
33.68579865 161.31199646 23.30540085 9.000000
27.74300003 141.34199524 41.55979919 9.000000
25.72150040 139.08500671 43.24509811 9.000000
29.71100044 140.74899292 42.80810165 9.000000
7.21679020 129.24400330 69.10800171 9.000000
41.59629822 159.03399658 31.00539970 9.000000
9.34879971 129.40400696 71.38780212 9.000000
11.79479980 128.40199280 72.44499969 9.000000
63.52399826 168.40100098 0.74021000 9.000000
65.54989624 168.48500061 -1.24838996 9.000000
67.58589935 168.58599854 -3.21243000 9.000000
79.62470245 166.42399597 -48.89179993 9.000000
79.74819946 136.68099976 -102.95899963 9.000000
33.64039993 140.53999329 44.45700073 9.000000
13.88930035 136.93600464 51.14279938 9.000000
66.43440247 165.64399719 1.65013003 9.000000
83.55780029 139.17599487 -101.36100006 9.000000
31.48760033 139.50599670 43.71070099 9.000000
67.80879974 167.01400757 -0.96722502 9.000000
79.91799927 140.06100464 -98.53079987 9.000000
7.74189997 106.89800262 90.97560120 9.000000
81.59940338 168.46899414 -44.87580109 9.000000
83.39340210 137.49499512 -103.63400269 9.000000
85.87079620 140.47200012 -100.86900330 9.000000
15.90359974 136.96800232 49.18330002 9.000000
14.99330044 151.14500427 44.90969849 9.000000
87.81120300 142.60000610 -98.93240356 9.000000
69.37670135 164.53599548 0.59671301 9.000000
83.70110321 168.85600281 -43.10179901 9.000000
75.62419891 133.00599670 -105.28199768 9.000000
77.83589935 134.46800232 -104.74800110 9.000000
75.62789917 135.03199768 -103.27799988 9.000000
70.92829895 165.98699951 -1.95782995 9.000000
16.54730034 151.30599976 39.59859848 9.000000
25.70339966 144.87800598 38.96160126 9.000000
31.67819977 166.75599670 16.83550072 9.000000
23.61599922 172.75999451 14.82089996 9.000000
18.08230019 149.19900513 39.35309982 9.000000
25.86610031 171.05099487 15.08450031 9.000000
88.48880005 132.18200684 -118.50199890 9.000000
27.80640030 143.47999573 39.70140076 9.000000
27.90629959 169.35699463 15.38370037 9.000000
29.72209930 142.69299316 40.74499893 9.000000
21.97750092 147.57699585 37.82759857 9.000000
35.73649979 163.89100647 20.15169907 9.000000
37.69300079 163.04800415 21.09880066 9.000000
35.77069855 160.50700378 24.67810059 9.000000
37.55929947 161.57200623 23.43630028 9.000000
39.75600052 160.59399414 26.73839951 9.000000
37.78469849 158.60200500 28.76250076 9.000000
9.65167999 134.88099670 64.93530273 9.000000
65.69400024 170.84100342 -7.09079981 9.000000
69.72109985 170.96499634 -9.02853012 9.000000
23.66200066 174.81599426 12.88539982 9.000000
25.74769974 147.02600098 37.12649918 9.000000
65.99369812 169.75799561 -4.64288998 9.000000
83.70639801 170.89500427 -39.11769867 9.000000
86.06849670 169.86399841 -39.68339920 9.000000
17.70859909 152.83900452 36.91199875 9.000000
87.62380219 168.67399597 -40.97949982 9.000000
31.82620049 144.44500732 40.51179886 9.000000
87.46009827 133.06500244 -115.23300171 9.000000
69.97979736 169.68800354 -6.51540995 9.000000
33.66730118 142.77900696 42.81349945 9.000000
27.88540077 145.65299988 38.04550171 9.000000
83.24629974 135.68699646 -105.82599640 9.000000
83.60549927 172.01499939 -36.73139954 9.000000
89.75270081 169.13800049 -39.21070099 9.000000
79.48490143 167.95300293 -46.70380020 9.000000
27.42410088 172.47099304 12.57129955 9.000000
77.79669952 169.22999573 -45.29449844 9.000000
19.63010025 150.77200317 36.82379913 9.000000
81.70210266 166.85099792 -47.10120010 9.000000
82.00849915 141.88699341 -96.47039795 9.000000
83.71720123 140.77400208 -99.04470062 9.000000
81.48889923 143.60600281 -93.62359619 9.000000
16.37129974 154.95199585 39.19630051 9.000000
29.74850082 170.96299744 13.03299999 9.000000
79.90879822 169.63999939 -43.52379990 9.000000
71.98999786 167.37300110 -4.63603020 9.000000
37.68809891 164.78700256 18.86030006 9.000000
9.20705032 110.19300079 88.03839874 9.000000
73.65360260 168.73399353 -7.17959976 9.000000
88.04930115 144.02000427 -96.66149902 9.000000
31.64649963 168.63200378 14.71469975 9.000000
33.79930115 167.51699829 15.52050018 9.000000
43.69850159 160.81900024 28.89879990 9.000000
33.82239914 165.72700500 17.69529915 9.000000
31.84620094 171.58500671 11.65050030 9.000000
37.80929947 152.70799255 36.75429916 9.000000
37.92160034 154.47900391 34.62419891 9.000000
2.10790992 116.43399811 78.75140381 9.000000
40.50979996 153.91299438 38.08750153 9.000000
35.75419998 171.17199707 11.20810032 9.000000
33.79410172 169.44099426 13.46310043 9.000000
77.90820313 138.12500000 -100.47799683 9.000000
42.18059921 155.91400146 36.23329926 9.000000
37.60039902 170.09399414 12.24730015 9.000000
77.59290314 172.30299377 -13.46599960 9.000000
59.72840118 164.88299561 12.92840004 9.000000
57.70230103 166.86199951 10.91520023 9.000000
61.95209885 163.13299561 13.06589985 9.000000
37.63510132 168.30200195 14.45310020 9.000000
85.97869873 167.34300232 -43.54380035 9.000000
12.81299973 144.69900513 50.44279861 9.000000
59.26969910 167.74099731 6.52914000 9.000000
5.16786003 119.84300232 79.62830353 9.000000
62.26890182 165.52600098 7.34258986 9.000000
64.32800293 163.49600220 7.43111992 9.000000
17.64469910 156.82600403 34.88190079 9.000000
37.67890167 166.53700256 16.68750000 9.000000
39.71009827 167.49899292 15.42520046 9.000000
61.23089981 167.70599365 4.46728992 9.000000
89.51170349 164.55999756 -44.84320068 9.000000
9.93142986 117.65399933 81.86979675 9.000000
19.12509918 154.60400391 34.27289963 9.000000
22.73469925 177.81500244 11.71529961 9.000000
22.92499924 179.82099915 9.89459991 9.000000
43.65159988 165.21099854 19.10260010 9.000000
21.47660065 154.49000549 32.47100067 9.000000
43.75389862 162.59199524 24.78820038 9.000000
24.48970032 177.57600403 9.70938015 9.000000
27.70649910 149.14799500 35.23590088 9.000000
27.71520042 151.29899597 33.36859894 9.000000
29.83609962 148.22000122 36.15420151 9.000000
21.40500069 152.33599854 34.32730103 9.000000
26.49780083 175.58200073 9.88846016 9.000000
77.72109985 140.70199585 -96.99449921 9.000000
29.77930069 150.45399475 34.43750000 9.000000
29.79170036 152.38000488 32.40060043 9.000000
33.27159882 149.75700378 35.91690063 9.000000
29.75729942 174.96899414 9.03687000 9.000000
23.69029999 152.83099365 32.90140152 9.000000
33.56570053 153.16700745 33.18840027 9.000000
29.74530029 172.94500732 11.01200008 9.000000
23.56349945 150.58500671 34.55849838 9.000000
31.88719940 173.62600708 9.65649986 9.000000
31.62220001 147.15600586 37.25469971 9.000000
37.88690186 179.16099548 -0.93410301 9.000000
42.01269913 177.33799744 -0.82334501 9.000000
63.46120071 162.57899475 10.75739956 9.000000
41.38439941 176.08900452 2.42083001 9.000000
44.05429840 177.30400085 -2.84220004 9.000000
49.66429901 172.78999329 0.88165402 9.000000
25.82620049 153.48199463 31.56739998 9.000000
63.97900009 165.11700439 5.11901999 9.000000
53.84080124 169.38299561 7.09747982 9.000000
26.36479950 177.81500244 7.84899998 9.000000
51.59909821 168.57299805 10.77649975 9.000000
55.95579910 169.46499634 5.11049986 9.000000
27.62260056 156.50399780 28.55229950 9.000000
55.52980042 168.32099915 8.72846985 9.000000
27.84070015 187.02099609 -6.98963022 9.000000
43.34799957 157.67799377 33.49700165 9.000000
29.76770020 176.97200012 7.03689003 9.000000
45.98929977 175.38400269 -0.80193502 9.000000
28.05879974 179.39500427 5.39658022 9.000000
29.76119995 184.93499756 -5.04934978 9.000000
31.59729958 184.65100098 -7.17658997 9.000000
46.05120087 173.55999756 3.35420990 9.000000
33.82799911 175.27499390 7.29344988 9.000000
31.97450066 177.55099487 5.49901009 9.000000
30.18560028 183.46000671 -2.74326992 9.000000
45.77629852 160.43899536 30.74819946 9.000000
31.94319916 183.37300110 -4.83067989 9.000000
47.69720078 159.72900391 33.33489990 9.000000
34.06660080 183.47399902 -6.75705004 9.000000
20.83219910 162.47200012 26.51300049 9.000000
71.72840118 137.61099243 -99.73370361 9.000000
73.51860046 135.69999695 -101.96499634 9.000000
15.19180012 124.46099854 56.05849838 9.000000
75.47840118 139.62500000 -97.75389862 9.000000
79.48419952 141.92599487 -95.80809784 9.000000
83.59899902 143.13000488 -95.27639771 9.000000
69.68930054 139.46000671 -97.56670380 9.000000
19.36249924 156.37199402 32.48059845 9.000000
85.62139893 145.05099487 -93.21230316 9.000000
11.79459953 136.63000488 64.73809814 9.000000
73.68969727 138.48699951 -98.81510162 9.000000
75.66259766 136.93600464 -101.17900085 9.000000
1.80191004 114.70400238 82.83519745 9.000000
81.63999939 145.06100464 -91.23850250 9.000000
35.33769989 147.39599609 39.68230057 9.000000
17.83250046 160.85800171 32.94979858 9.000000
85.88379669 146.12100220 -90.76709747 9.000000
37.42610168 149.21499634 39.51979828 9.000000
85.57189941 147.43600464 -87.38980103 9.000000
88.06620026 145.87699890 -92.61209869 9.000000
73.62069702 141.17900085 -95.35639954 9.000000
73.69930267 143.01300049 -93.22290039 9.000000
27.63590050 154.39999390 30.41600037 9.000000
18.87299919 160.69500732 30.64579964 9.000000
77.71630096 144.69200134 -90.99620056 9.000000
20.17070007 159.24000549 29.34740067 9.000000
21.49799919 156.61099243 30.67140007 9.000000
23.16220093 158.16200256 28.28510094 9.000000
14.23910046 139.94700623 60.45970154 9.000000
11.82429981 138.69700623 62.80950165 9.000000
13.24450016 140.53900146 50.42929840 9.000000
77.69940186 147.06300354 -87.21199799 9.000000
83.73650360 146.55700684 -88.96140289 9.000000
81.73880005 148.30200195 -84.81700134 9.000000
79.68090057 146.16600037 -88.74279785 9.000000
81.66089630 147.06700134 -87.21230316 9.000000
29.66449928 155.44200134 29.46030045 9.000000
19.46229935 162.82400513 28.86700058 9.000000
19.58149910 165.92599487 26.67900085 9.000000
0.15622500 112.38099670 84.68650055 9.000000
71.70089722 126.81400299 -109.05999756 9.000000
75.40579987 153.85299683 -76.53690338 9.000000
73.53289795 129.25700378 -107.63899994 9.000000
75.67690277 130.86900330 -107.13099670 9.000000
77.91249847 153.80799866 -75.60870361 9.000000
81.63649750 152.47399902 -76.92700195 9.000000
74.11979675 126.15899658 -110.23600006 9.000000
77.76969910 155.11300659 -73.23030090 9.000000
67.74259949 136.44900513 -100.74800110 9.000000
69.72920227 134.52799988 -102.79699707 9.000000
71.58570099 131.32800293 -105.67600250 9.000000
73.49590302 133.68499756 -104.02799988 9.000000
39.80270004 163.98199463 20.28170013 9.000000
39.75709915 162.46400452 22.68070030 9.000000
43.88729858 163.96000671 22.39480019 9.000000
3.45653009 119.02899933 76.96080017 9.000000
71.69509888 142.10099792 -94.46450043 9.000000
71.68350220 140.22099304 -96.56999969 9.000000
79.91000366 163.10400391 -53.22069931 9.000000
24.65880013 179.77099609 7.77659988 9.000000
23.75000000 154.95500183 31.04450035 9.000000
35.52939987 174.05099487 8.24954987 9.000000
39.75019836 169.23300171 13.23639965 9.000000
43.71020126 167.99499512 14.33590031 9.000000
71.79799652 145.79800415 -89.64250183 9.000000
69.71330261 143.10800171 -93.31410217 9.000000
71.69210052 143.81300354 -92.21929932 9.000000
89.88240051 142.52099609 -100.91899872 9.000000
79.88339996 160.94799805 -59.22269821 9.000000
75.79319763 143.71899414 -92.31539917 9.000000
77.76210022 163.13699341 -57.12779999 9.000000
75.80310059 165.17100525 -55.22389984 9.000000
7.90440989 101.00700378 94.95559692 9.000000
29.62159920 180.73399353 2.84322000 9.000000
71.47519684 160.46000671 -66.85990143 9.000000
71.35749817 162.21299744 -64.79280090 9.000000
31.95400047 179.35400391 3.26977992 9.000000
75.67150116 158.69599915 -66.99970245 9.000000
73.63939667 160.72900391 -65.03910065 9.000000
40.09349823 171.76699829 9.57157993 9.000000
35.66619873 176.76499939 4.85110998 9.000000
45.91650009 169.44400024 11.29109955 9.000000
37.99200058 175.54800415 5.41714001 9.000000
25.04520035 182.18899536 4.46828985 9.000000
41.68840027 166.43899536 16.60490036 9.000000
26.16959953 183.76600647 1.39453995 9.000000
27.18359947 182.12199402 2.67464995 9.000000
35.63309860 145.02999878 41.19950104 9.000000
38.12030029 173.81599426 7.65890980 9.000000
39.84899902 148.67799377 40.54150009 9.000000
69.62850189 148.52099609 -86.86440277 9.000000
71.44529724 149.86300659 -84.45099640 9.000000
73.66670227 148.70799255 -85.00119781 9.000000
75.71360016 149.43299866 -83.46109772 9.000000
73.60579681 147.10000610 -87.30110168 9.000000
75.78820038 146.08799744 -88.59909821 9.000000
73.78739929 165.07800293 -57.21279907 9.000000
28.09690094 183.57000732 -0.76058602 9.000000
73.50019836 166.33900452 -54.85869980 9.000000
85.71520233 142.78100586 -97.05159760 9.000000
77.84999847 165.10899353 -53.23379898 9.000000
77.31749725 167.69400024 -48.37549973 9.000000
31.77960014 180.96600342 0.99478000 9.000000
33.80810165 181.05999756 -0.95348001 9.000000
34.12810135 179.63499451 1.45578003 9.000000
37.32849884 177.91600037 2.25425005 9.000000
42.09239960 173.72000122 5.55560017 9.000000
57.70029831 164.85000610 16.91290092 9.000000
29.87179947 187.08500671 -8.96920013 9.000000
60.39450073 163.66099548 15.31569958 9.000000
33.39680099 182.19900513 -3.41267991 9.000000
35.93799973 181.23699951 -2.86619997 9.000000
71.45249939 154.02099609 -78.44660187 9.000000
37.89229965 181.15100098 -4.92187977 9.000000
43.56869888 174.60000610 2.76239991 9.000000
71.53910065 152.27499390 -80.76270294 9.000000
73.65709686 152.67399597 -78.99909973 9.000000
39.27799988 179.86599731 -3.52199006 9.000000
75.62380219 147.69000244 -86.35639954 9.000000
77.67299652 148.42300415 -84.87120056 9.000000
79.68759918 149.16900635 -83.27459717 9.000000
69.71510315 141.29299927 -95.47160339 9.000000
48.02840042 171.59500122 5.35799980 9.000000
39.41880035 151.14199829 39.33639908 9.000000
73.84700012 169.36000061 -47.30130005 9.000000
77.58180237 170.36300659 -42.93629837 9.000000
81.64830017 170.45599365 -40.92020035 9.000000
69.70040131 144.95199585 -91.17720032 9.000000
51.64179993 170.72700500 4.84371996 9.000000
53.72159958 170.89900208 2.93435001 9.000000
59.62960052 166.73899841 8.86281013 9.000000
37.72230148 146.74600220 40.70579910 9.000000
32.60189819 185.77299500 -10.55410004 9.000000
36.01210022 183.44000244 -8.76931953 9.000000
69.85880280 155.48300171 -77.45429993 9.000000
37.92240143 183.35499573 -10.80000019 9.000000
68.09249878 161.42100525 5.35235977 9.000000
73.70619965 154.89700317 -75.12660217 9.000000
66.29190063 163.68499756 3.67680001 9.000000
37.45890045 182.45100403 -7.27786016 9.000000
39.38660049 182.37199402 -9.31097031 9.000000
71.49639893 162.69700623 0.71365601 9.000000
41.51950073 180.55000305 -7.21166992 9.000000
41.91450119 179.15299988 -4.93992996 9.000000
81.67359924 150.42900085 -80.88970184 9.000000
43.86629868 179.13600159 -6.97739983 9.000000
51.74499893 172.97099304 -1.03999996 9.000000
12.72439957 140.99800110 55.13520050 9.000000
75.43039703 166.39500427 -5.52059984 9.000000
71.79190063 171.42500305 -10.77340031 9.000000
73.59279633 170.47599792 -9.35529041 9.000000
31.11090088 187.91900635 -13.53260040 9.000000
31.21850014 190.17199707 -17.42410088 9.000000
77.39050293 168.12600708 -7.75980997 9.000000
77.76059723 173.89799500 -30.94490051 9.000000
83.69680023 174.19099426 -30.96710014 9.000000
41.28179932 182.14300537 -11.36649990 9.000000
43.35779953 180.29699707 -9.28182983 9.000000
48.07699966 177.50300598 -8.89249992 9.000000
47.43209839 176.39999390 -5.28546000 9.000000
49.42119980 176.37500000 -7.28319979 9.000000
13.90330029 136.54899597 62.71979904 9.000000
56.04349899 171.53199768 -0.78900301 9.000000
57.98429871 171.46600342 -2.79607010 9.000000
59.97760010 171.47099304 -4.80304003 9.000000
71.66169739 172.33999634 -13.25650024 9.000000
75.72200012 171.03300476 -10.97329998 9.000000
71.54930115 158.54299927 -70.95020294 9.000000
73.63529968 158.70500183 -69.02210236 9.000000
73.69360352 172.86300659 -15.08399963 9.000000
73.86710358 157.08999634 -71.26180267 9.000000
75.94989777 157.63699341 -69.48670197 9.000000
34.15819931 189.46400452 -20.93269920 9.000000
33.49810028 188.67799377 -17.22500038 9.000000
36.39429855 188.04299927 -20.56290054 9.000000
77.57150269 156.18200684 -70.80030060 9.000000
79.61859894 156.66700745 -69.02249908 9.000000
35.75049973 186.92100525 -17.05480003 9.000000
79.76270294 155.28700256 -71.28309631 9.000000
83.29519653 125.24600220 -119.41200256 9.000000
67.58920288 172.05700684 -11.33100033 9.000000
78.09130096 122.39399719 -116.65000153 9.000000
37.41299820 188.52099609 -23.23410034 9.000000
46.06420135 181.45599365 -16.88120079 9.000000
47.77809906 180.97900391 -19.06040001 9.000000
78.18240356 157.99899292 -67.60169983 9.000000
45.51039886 180.53399658 -13.19960022 9.000000
83.71009827 151.22700500 -79.26280212 9.000000
89.63680267 150.45300293 -79.02960205 9.000000
87.63240051 150.33900452 -80.93009949 9.000000
43.97249985 154.44700623 38.51409912 9.000000
49.73680115 162.51300049 26.78590012 9.000000
51.89080048 161.95799255 28.60070038 9.000000
31.63419914 141.35699463 41.47480011 9.000000
75.78099823 161.05700684 -63.19779968 9.000000
77.93530273 161.31399536 -61.22560120 9.000000
79.87409973 159.12600708 -63.21709824 9.000000
45.88159943 158.33599854 34.58969879 9.000000
49.63660049 161.16000366 31.00180054 9.000000
73.78510284 163.04200745 -61.17259979 9.000000
13.57699966 148.88299561 48.91790009 9.000000
73.57019806 150.36599731 -82.79789734 9.000000
53.83169937 167.27699280 13.09490013 9.000000
61.36769867 171.96800232 -7.42735004 9.000000
63.60400009 170.52699280 -5.22253990 9.000000
37.85860062 190.98300171 -28.98180008 9.000000
67.75260162 130.24400330 -106.38400269 9.000000
71.32209778 164.15600586 -60.81890106 9.000000
75.76249695 163.10400391 -59.14440155 9.000000
79.64299774 126.89800262 -113.15499878 9.000000
79.65550232 128.89399719 -111.15000153 9.000000
79.65470123 130.90400696 -109.15799713 9.000000
45.30699921 161.97000122 27.39879990 9.000000
47.42350006 161.67799377 29.28370094 9.000000
47.66130066 163.04600525 25.00480080 9.000000
55.52529907 166.30900574 14.69620037 9.000000
69.74610138 132.43099976 -104.65499878 9.000000
57.19139862 175.93699646 -19.30159950 9.000000
60.00199890 175.68800354 -20.93840027 9.000000
61.67539978 174.78700256 -19.10059929 9.000000
59.73049927 174.93499756 -17.07469940 9.000000
47.99649811 165.38800049 21.15029907 9.000000
49.69779968 163.93899536 22.48430061 9.000000
51.65309906 164.58900452 20.79850006 9.000000
47.66889954 166.61199951 16.78540039 9.000000
51.63280106 166.19599915 16.63199997 9.000000
