-233.98899841 141.25399780 -251.59399414 8.000000
-229.96800232 143.61700439 -249.03599548 8.000000
-165.94299316 103.75199890 -262.51800537 8.000000
-233.99800110 138.01499939 -256.27099609 8.000000
-229.49299622 139.42999268 -254.25300598 8.000000
-197.47799683 105.82700348 -293.14199829 8.000000
-179.97700500 100.34600067 -280.68200684 8.000000
-193.53599548 103.72799683 -296.19299316 8.000000
-189.36900330 101.04599762 -294.73999023 8.000000
-194.43200684 110.40599823 -276.21600342 8.000000
-185.07699585 98.13780212 -296.05398560 8.000000
-187.44599915 112.47899628 -272.31600952 8.000000
-184.00500488 109.19000244 -274.49398804 8.000000
-175.96499634 110.62999725 -273.41799927 8.000000
-179.51499939 107.19100189 -275.97698975 8.000000
-203.92199707 108.94000244 -293.60400391 8.000000
-184.09399414 103.09799957 -279.37399292 8.000000
-175.99299622 103.26699829 -278.57199097 8.000000
-142.88400269 79.88040161 -278.24600220 8.000000
-151.88800049 79.94259644 -284.83700562 8.000000
-211.92300415 112.97299957 -291.19500732 8.000000
-189.89100647 107.00800323 -277.85699463 8.000000
-177.46499634 94.83820343 -284.65200806 8.000000
-160.86199951 106.68199921 -263.83401489 8.000000
-185.04800415 123.13700104 -259.88198853 8.000000
-119.87300110 39.87440109 -303.56100464 8.000000
-169.38699341 105.25599670 -255.56799316 8.000000
-142.47000122 69.81250000 -310.10400391 8.000000
-138.98199463 65.80709839 -311.11898804 8.000000
-130.97999573 50.81140137 -313.12701416 8.000000
-125.94899750 49.29679871 -316.00500488 8.000000
-13.52880001 -102.22799683 -403.73599243 8.000000
-5.98283005 -103.67800140 -404.13198853 8.000000
-14.91419983 -97.10099792 -404.43600464 8.000000
-10.04059982 -98.20870209 -406.30599976 8.000000
-8.52250957 -121.70099640 -403.67898560 8.000000
-9.87646961 -115.66699982 -403.45199585 8.000000
-124.85800171 21.34830093 -282.03601074 8.000000
-121.81500244 17.46430016 -283.43200684 8.000000
-115.94499969 14.38269997 -285.56100464 8.000000
-117.31800079 18.45350075 -288.48001099 8.000000
-128.07499695 54.76919937 -315.21301270 8.000000
-117.57199860 47.24160004 -320.70599365 8.000000
-112.82599640 42.90859985 -322.47500610 8.000000
-115.28900146 49.04249954 -325.42098999 8.000000
-112.49800110 33.80479813 -321.66500854 8.000000
-110.28700256 38.36740112 -322.42001343 8.000000
-110.00700378 46.28170013 -327.16598511 8.000000
-115.37300110 53.94660187 -328.87799072 8.000000
-109.10299683 50.64099884 -329.88500977 8.000000
-91.02919769 9.32219982 -330.74301147 8.000000
-87.50399780 5.30029011 -332.65798950 8.000000
-105.42900085 46.86380005 -329.50601196 8.000000
-112.97200012 57.84389877 -331.56201172 8.000000
-103.98999786 51.29629898 -332.14300537 8.000000
-107.43800354 55.46780014 -332.35800171 8.000000
-95.48660278 14.80469990 -328.62298584 8.000000
-155.49200439 103.80300140 -277.62298584 8.000000
-99.03469849 31.77470016 -327.72198486 8.000000
-94.48780060 29.80319977 -329.13101196 8.000000
-151.01199341 100.79399872 -277.05099487 8.000000
-100.92500305 44.33879852 -330.53500366 8.000000
-156.52600098 98.80680084 -279.02499390 8.000000
-162.91999817 100.23999786 -265.49700928 8.000000
-151.45700073 94.31849670 -278.21200562 8.000000
-146.58599854 94.29119873 -276.37200928 8.000000
-144.57899475 89.27290344 -275.98199463 8.000000
-152.18800354 85.12120056 -281.89498901 8.000000
-147.82400513 83.41929626 -279.89599609 8.000000
-81.53009796 24.30820084 -334.18200684 8.000000
-85.45240021 31.79070091 -331.52398682 8.000000
-91.12300110 25.77809906 -330.35000610 8.000000
-164.57600403 94.39160156 -267.31600952 8.000000
-159.96000671 93.27819824 -270.06900024 8.000000
-95.48979950 35.40029907 -329.41500854 8.000000
-90.48960114 38.38380051 -331.91198730 8.000000
-83.47560120 41.35409927 -332.42098999 8.000000
-90.00289917 43.84030151 -332.95098877 8.000000
-82.98149872 46.86840057 -332.91000366 8.000000
-87.99250031 55.31819916 -334.57501221 8.000000
-122.24800110 23.36989975 -285.95199585 8.000000
-93.52420044 52.36119843 -334.34799194 8.000000
-92.84020233 8.92551041 -315.61499023 8.000000
-126.97799683 48.31949997 -311.14401245 8.000000
-150.41799927 70.39089966 -305.14498901 8.000000
-134.24200439 54.54150009 -312.07501221 8.000000
-142.28599548 66.53299713 -290.77899170 8.000000
-138.84100342 66.94650269 -286.25100708 8.000000
-154.92500305 74.38169861 -304.12799072 8.000000
-132.79600525 56.56039810 -306.74398804 8.000000
-136.36399841 67.88480377 -281.21701050 8.000000
-96.37200165 9.96549988 -296.57400513 8.000000
-95.44840240 11.33440018 -311.12600708 8.000000
-74.65579987 -15.83520031 -327.07501221 8.000000
-72.83999634 -38.72309875 -376.72900391 8.000000
-48.47919846 -52.18700027 -334.65899658 8.000000
-42.90829849 -51.64759827 -332.26599121 8.000000
-70.32270050 -19.58779907 -323.17199707 8.000000
-73.32430267 -21.20319939 -376.73498535 8.000000
-70.40129852 -22.19549942 -371.66400146 8.000000
-65.45300293 -70.17070007 -335.58499146 8.000000
-46.60139847 -66.84190369 -350.59600830 8.000000
-73.10780334 -46.62319946 -313.68200684 8.000000
-66.98670197 -41.69639969 -321.12899780 8.000000
-58.52069855 -62.75009918 -393.63101196 8.000000
-47.09270096 -69.36129761 -390.14300537 8.000000
-75.29299927 -29.19849968 -380.20300293 8.000000
-46.81489944 -89.99359894 -336.10699463 8.000000
-46.97850037 -37.69390106 -331.64401245 8.000000
-52.38759995 -69.21589661 -345.48498535 8.000000
-41.47660065 -84.68479919 -363.14700317 8.000000
-45.84920120 -66.52249908 -343.18701172 8.000000
-46.32440186 -87.59549713 -368.08999634 8.000000
-41.28649902 -72.02020264 -348.15200806 8.000000
-43.85850143 -93.08439636 -369.74798584 8.000000
-38.97629929 -94.17659760 -368.16198730 8.000000
-71.06060028 -8.71504021 -306.60800171 8.000000
-36.93880081 -98.62550354 -370.22299194 8.000000
-72.26399994 -10.37059975 -313.00601196 8.000000
-70.15470123 -15.23149967 -312.63500977 8.000000
-44.93040085 -91.13339996 -341.11999512 8.000000
-41.40179825 -101.60900116 -374.66101074 8.000000
-52.46440125 -64.65350342 -379.14199829 8.000000
-41.42029953 -90.06559753 -366.34698486 8.000000
-45.01630020 -80.26869965 -361.53799438 8.000000
-39.51020050 -106.72100067 -377.11801147 8.000000
-41.39059830 -94.60099792 -346.11898804 8.000000
-58.02590179 -59.25630188 -374.08700562 8.000000
-40.82109833 -94.99469757 -340.66400146 8.000000
-41.90959930 -70.08570099 -343.19699097 8.000000
-37.12250137 -91.76570129 -364.09899902 8.000000
-71.63359833 -34.20569992 -374.51400757 8.000000
-72.46739960 -29.19099998 -343.11599731 8.000000
-52.26399994 -85.38980103 -335.05599976 8.000000
-42.88190079 -93.04650116 -335.14801025 8.000000
-48.39059830 -67.51670074 -380.69699097 8.000000
-63.37300110 -53.58929825 -373.27200317 8.000000
-51.93899918 -73.17520142 -360.63500977 8.000000
-49.12459946 -88.39559937 -331.57101440 8.000000
-45.25699997 -70.97090149 -395.63000488 8.000000
-35.63610077 -118.69899750 -384.69699097 8.000000
-33.06980133 -122.76100159 -382.98400879 8.000000
-71.12310028 -17.18070030 -372.58300781 8.000000
-53.36059952 -61.99200058 -374.70498657 8.000000
-37.30530167 -97.92710114 -343.19500732 8.000000
-47.02610016 -75.75509644 -359.53298950 8.000000
-33.44499969 -100.12799835 -340.64001465 8.000000
-31.96940041 -83.17379761 -349.64401245 8.000000
-31.04540062 -134.77600098 -391.09500122 8.000000
-68.95659637 -30.15419960 -339.17498779 8.000000
-68.27749634 -35.65269852 -370.78900146 8.000000
-33.81800079 -103.04100037 -356.09500122 8.000000
-66.44219971 -41.18669891 -370.17199707 8.000000
-29.31110001 -108.53900146 -358.20800781 8.000000
-30.48909950 -106.19999695 -353.12899780 8.000000
-36.55889893 -76.77960205 -347.58599854 8.000000
-43.31890106 -72.47609711 -388.08700562 8.000000
-37.39429855 -74.07959747 -343.19799805 8.000000
-26.89130020 -106.50299835 -348.27999878 8.000000
-25.84250069 -109.49900055 -352.31500244 8.000000
-35.93109894 -95.15550232 -360.11499023 8.000000
-28.05990028 -103.80699921 -342.08099365 8.000000
-37.84170151 -96.96880341 -353.02899170 8.000000
-72.81379700 -27.20940018 -375.74600220 8.000000
-45.55089951 -42.72299957 -331.52600098 8.000000
-35.62170029 -100.83999634 -350.62799072 8.000000
-70.14260101 -29.70240021 -372.02200317 8.000000
-27.83830070 -148.06799316 -397.23901367 8.000000
-69.70860291 -23.88019943 -331.01998901 8.000000
-48.76020050 -87.48880005 -341.62600708 8.000000
-68.22039795 -22.22999954 -367.08300781 8.000000
-66.32389832 -24.14839935 -362.67898560 8.000000
-70.12879944 -47.22460175 -375.43099976 8.000000
-22.97360039 -86.85050201 -346.50799561 8.000000
-66.29280090 -46.62480164 -371.83499146 8.000000
-69.81240082 -34.13209915 -344.56600952 8.000000
-62.41189957 -49.65240097 -369.69299316 8.000000
-23.02470016 -107.27400208 -345.10101318 8.000000
-65.20249939 -35.10779953 -366.79800415 8.000000
-69.73799896 -16.24640083 -307.61099243 8.000000
-15.44659996 -112.55999756 -350.20498657 8.000000
-107.83599854 22.94129944 -322.64599609 8.000000
-37.15129852 -97.47519684 -338.10299683 8.000000
-48.30950165 -65.96219635 -375.72100830 8.000000
-112.52700043 29.76040077 -318.60299683 8.000000
-40.90069962 -76.11820221 -391.13198853 8.000000
-108.30400085 27.02770042 -317.83300781 8.000000
-68.50530243 -23.70560074 -325.61898804 8.000000
-69.57830048 -12.20219994 -301.11401367 8.000000
-104.38400269 23.39340019 -316.63699341 8.000000
-116.85800171 34.44530106 -318.14199829 8.000000
-67.96029663 -23.18680000 -320.12899780 8.000000
-120.44999695 38.83689880 -316.62799072 8.000000
-69.56839752 -18.72120094 -318.11099243 8.000000
-114.79699707 35.98649979 -313.73001099 8.000000
-44.38940048 -71.06369781 -382.66400146 8.000000
-111.35500336 31.92350006 -313.11999512 8.000000
-31.92860031 -102.08499908 -345.16400146 8.000000
-125.28700256 44.51670074 -314.17898560 8.000000
-67.24530029 -28.52939987 -334.69400024 8.000000
-122.44400024 45.34120178 -309.63299561 8.000000
-125.37500000 48.40610123 -306.09899902 8.000000
-122.74199677 44.49720001 -304.04901123 8.000000
-136.29400635 59.47150040 -300.58401489 8.000000
-133.27299500 55.53960037 -297.64401245 8.000000
-128.94200134 51.34370041 -297.64199829 8.000000
-125.80200195 47.91640091 -293.64401245 8.000000
-106.95099640 26.33589935 -312.62298584 8.000000
-56.27230072 -81.02269745 -336.01901245 8.000000
-56.98260117 -82.68740082 -331.12701416 8.000000
-111.40599823 11.06260014 -284.58401489 8.000000
-118.93099976 41.35760117 -311.14001465 8.000000
-144.92300415 72.87539673 -286.20098877 8.000000
-104.75900269 19.53120041 -324.98400879 8.000000
-140.77400208 71.02919769 -283.89401245 8.000000
-133.10600281 62.72460175 -282.08200073 8.000000
-130.49899292 60.29740143 -278.12500000 8.000000
-129.54100037 52.71950150 -308.58099365 8.000000
-128.44200134 55.32080078 -277.14401245 8.000000
-130.81199646 53.95470047 -302.60198975 8.000000
-151.40600586 74.90249634 -300.13000488 8.000000
-136.54200745 59.24060059 -295.10198975 8.000000
-138.85299683 78.87689972 -275.25900269 8.000000
-103.76300049 19.50639915 -306.52899170 8.000000
-132.56599426 69.77330017 -273.07400513 8.000000
-131.82200623 55.97129822 -292.70800781 8.000000
-129.52699280 66.79669952 -270.10101318 8.000000
-150.46400452 71.83170319 -293.12701416 8.000000
-139.89399719 83.84140015 -274.24600220 8.000000
-131.88999939 57.90380096 -287.66000366 8.000000
-153.06300354 75.18029785 -290.02600098 8.000000
-135.82800293 62.96429825 -287.25698853 8.000000
-145.47599792 65.81909943 -306.63299561 8.000000
-126.24099731 48.04600143 -301.10699463 8.000000
-147.17599487 78.13339996 -283.38500977 8.000000
-133.36799622 66.87010193 -277.20098877 8.000000
-143.07899475 75.72769928 -281.54699707 8.000000
-135.90699768 71.34909821 -277.18899536 8.000000
-138.82800293 62.96139908 -304.15100098 8.000000
-142.39399719 66.40149689 -302.64199829 8.000000
-146.68899536 70.65080261 -301.64898682 8.000000
-156.34800720 90.90350342 -281.33801270 8.000000
-150.52400208 89.28420258 -279.07199097 8.000000
-128.34500122 51.91439819 -291.66198730 8.000000
-140.38900757 62.94800186 -294.18701172 8.000000
-66.43399811 -27.65970039 -328.62701416 8.000000
-146.33200073 69.98940277 -290.77398682 8.000000
-179.35400391 94.02239990 -298.59399414 8.000000
-144.30200195 66.51149750 -296.06600952 8.000000
-123.45899963 44.32519913 -298.62899780 8.000000
-67.45059967 -38.66859818 -346.12298584 8.000000
-53.84999847 -59.09109879 -370.24099731 8.000000
-69.03440094 -20.20940018 -313.13598633 8.000000
-59.21480179 -53.91600037 -369.91198730 8.000000
-53.77059937 -67.15309906 -358.14099121 8.000000
-33.20019913 -101.07399750 -361.04699707 8.000000
-49.61650085 -63.36220169 -371.51800537 8.000000
-40.37379837 -76.07749939 -396.59698486 8.000000
-40.09320068 -76.30229950 -386.13500977 8.000000
-37.34249878 -80.05390167 -394.10800171 8.000000
-38.25210190 -88.06369781 -360.61099243 8.000000
-49.49100113 -70.20179749 -357.12200928 8.000000
-44.20500183 -69.93019867 -377.66400146 8.000000
-41.03079987 -93.20719910 -351.16400146 8.000000
-44.91339874 -90.12249756 -346.09399414 8.000000
-95.96369934 12.82279968 -316.63000488 8.000000
-102.82399750 20.95669937 -312.07800293 8.000000
-100.35700226 16.89679909 -310.07998657 8.000000
-97.80650330 13.47259998 -307.10800171 8.000000
-99.33560181 12.99310017 -301.07199097 8.000000
-110.32299805 24.91020012 -303.53100586 8.000000
-108.37200165 20.43680000 -300.53500366 8.000000
-105.34500122 16.49959946 -298.53799438 8.000000
-100.84999847 11.54829979 -294.02999878 8.000000
-102.46600342 8.98120022 -285.05398560 8.000000
-125.32499695 46.88660049 -288.65899658 8.000000
-128.73100281 54.42940140 -284.67199707 8.000000
-126.74700165 49.44729996 -280.63101196 8.000000
-180.29800415 97.61759949 -293.76400757 8.000000
-125.94400024 46.81119919 -276.14199829 8.000000
-126.32700348 50.33869934 -272.15399170 8.000000
-128.06500244 61.78509903 -270.10101318 8.000000
-135.34899902 75.37740326 -273.74600220 8.000000
-135.94500732 81.81659698 -271.67700195 8.000000
-206.92500305 122.95899963 -267.20498657 8.000000
-146.46699524 102.80699921 -275.70999146 8.000000
-223.44099426 117.97100067 -289.14999390 8.000000
-218.44099426 115.97499847 -290.64099121 8.000000
-201.99699402 121.28600311 -266.61801147 8.000000
-199.90499878 109.48200226 -290.23800659 8.000000
-193.02999878 106.21600342 -290.60699463 8.000000
-197.50599670 118.75099945 -268.08801270 8.000000
-186.28199768 102.12100220 -290.69601440 8.000000
-207.02900696 111.70600128 -290.54299927 8.000000
-220.51800537 119.73699951 -285.08499146 8.000000
-215.53300476 117.69999695 -286.06799316 8.000000
-191.41099548 105.42299652 -285.60400391 8.000000
-210.02600098 115.71499634 -286.07501221 8.000000
-185.27200317 100.58499908 -284.59799194 8.000000
-204.03100586 113.21299744 -286.10198975 8.000000
-173.46499634 91.85649872 -285.68600464 8.000000
-196.81199646 109.06700134 -286.12399292 8.000000
-207.05700684 127.19599915 -260.06298828 8.000000
-202.46400452 125.35600281 -258.64401245 8.000000
-198.44400024 122.96600342 -260.67498779 8.000000
-156.17399597 84.17050171 -284.92199707 8.000000
-181.87399292 98.43240356 -288.09201050 8.000000
-194.31900024 120.63500214 -263.87899780 8.000000
-105.02899933 12.20940018 -290.16900635 8.000000
-177.43099976 95.37400055 -290.09899902 8.000000
-123.23400116 43.44039917 -293.05099487 8.000000
-215.40199280 127.97000122 -264.73699951 8.000000
-229.48699951 120.80899811 -287.13198853 8.000000
-172.97500610 106.87799835 -276.23699951 8.000000
-226.46699524 122.35099792 -283.16299438 8.000000
-229.97200012 129.33299255 -270.67098999 8.000000
-225.03199768 128.65400696 -269.53900146 8.000000
-221.92199707 125.56900024 -273.27398682 8.000000
-216.95500183 122.91200256 -275.17599487 8.000000
-211.99499512 120.78500366 -277.11898804 8.000000
-230.91400146 135.00000000 -259.76300049 8.000000
-225.48599243 134.81799316 -259.63800049 8.000000
-196.01300049 115.22799683 -271.56600952 8.000000
-222.93899536 131.47999573 -263.30099487 8.000000
-211.54100037 125.19000244 -266.56500244 8.000000
-220.01600647 133.69799805 -259.54098511 8.000000
-225.51300049 142.50199890 -251.82600403 8.000000
-222.97099304 138.85699463 -255.18200684 8.000000
-156.49200439 78.29869843 -300.62399292 8.000000
-54.32830048 -64.94439697 -396.54199219 8.000000
-76.17169952 -39.21080017 -381.10400391 8.000000
-56.88769913 -45.11569977 -360.22299194 8.000000
-61.62160110 -40.71979904 -331.68499756 8.000000
-62.31460190 -48.61949921 -349.65100098 8.000000
-65.03669739 -33.73960114 -339.10000610 8.000000
-59.37260056 -46.62469864 -345.79098511 8.000000
-57.84109879 -57.57839966 -353.19699097 8.000000
-62.42839813 -36.16979980 -335.13400269 8.000000
-53.35889816 -58.02159882 -350.85000610 8.000000
-64.79290009 -44.27750015 -348.80499268 8.000000
-61.53839874 -41.71300125 -364.59399414 8.000000
-60.96609879 -42.17179871 -343.65701294 8.000000
-64.32839966 -32.12599945 -331.63500977 8.000000
-60.54349899 -52.73350143 -352.13699341 8.000000
-58.97959900 -43.69210052 -339.12799072 8.000000
-63.30989838 -36.17070007 -328.56900024 8.000000
-56.42240143 -53.59320068 -349.27200317 8.000000
-60.53939819 -38.71680069 -360.10299683 8.000000
-42.52999878 -78.21420288 -357.61700439 8.000000
-65.06130219 -32.20059967 -325.14300537 8.000000
-40.51959991 -83.70480347 -358.13299561 8.000000
-63.00790024 -32.69779968 -361.62799072 8.000000
-63.93069839 -38.14390182 -342.21200562 8.000000
-50.77970123 -83.00170135 -343.56201172 8.000000
-66.42729950 -31.70420074 -320.11700439 8.000000
-67.01349640 -27.70159912 -366.61599731 8.000000
-73.65010071 -15.13350010 -378.05599976 8.000000
-51.47259903 -57.18610001 -365.14099121 8.000000
-55.90890121 -62.14120102 -355.15301514 8.000000
-45.80640030 -71.63990021 -353.60400391 8.000000
-55.32400131 -78.11789703 -341.02099609 8.000000
-57.76449966 -49.53110123 -364.29501343 8.000000
-68.77539825 -23.71129990 -309.10400391 8.000000
-53.83319855 -50.11470032 -360.70300293 8.000000
-69.25749969 -21.23150063 -304.57901001 8.000000
-69.62020111 -29.18020058 -308.17401123 8.000000
-61.13240051 -34.24860001 -357.07598877 8.000000
-69.50969696 -20.19169998 -299.62899780 8.000000
-67.43240356 -27.69210052 -317.11801147 8.000000
-68.41390228 5.78922987 -364.63000488 8.000000
-68.63590240 -36.17779922 -315.69900513 8.000000
-69.11350250 1.30056000 -359.60998535 8.000000
-69.25029755 -3.69043994 -364.63800049 8.000000
-116.80799866 37.93450165 -308.05700684 8.000000
-115.80200195 32.93330002 -303.57000732 8.000000
-115.91899872 29.82929993 -299.09899902 8.000000
-129.35299683 60.42129898 -320.08599854 8.000000
-68.47480011 3.30046010 -370.12899780 8.000000
-119.53500366 37.77379990 -298.64001465 8.000000
-118.51300049 33.29420090 -296.14199829 8.000000
-140.29299927 88.86979675 -345.60800171 8.000000
-67.18779755 10.86330032 -366.13699341 8.000000
-68.82730103 7.30600977 -359.60198975 8.000000
-120.91699982 37.84280014 -293.59698486 8.000000
-122.79799652 31.81809998 -287.06600952 8.000000
-123.86399841 27.82640076 -284.05499268 8.000000
-140.86700439 91.31320190 -341.13101196 8.000000
-68.81790161 -13.75809956 -296.22601318 8.000000
-70.09179688 -26.65749931 -303.66400146 8.000000
-122.50700378 37.29880142 -288.63699341 8.000000
-69.15550232 -10.21010017 -364.60598755 8.000000
-112.45099640 31.82519913 -308.11099243 8.000000
-68.32469940 -9.67510986 -359.63699341 8.000000
-125.28500366 44.35010147 -283.60998535 8.000000
-124.71199799 39.37979889 -281.58898926 8.000000
-141.22900391 100.31800079 -336.59100342 8.000000
-194.55299377 118.61100006 -336.69198608 8.000000
-70.31890106 -7.19668007 -371.63598633 8.000000
-68.79090118 -4.17695999 -359.13198853 8.000000
-68.91639709 -5.18968010 -354.11700439 8.000000
-202.99499512 120.29299927 -323.63101196 8.000000
-175.43600464 97.88849640 -308.10501099 8.000000
-198.53199768 117.72599792 -325.14401245 8.000000
-170.90400696 95.45189667 -308.58300781 8.000000
-195.59899902 116.13200378 -321.16198730 8.000000
-172.81199646 89.04660034 -299.67098999 8.000000
-191.40699768 113.44599915 -319.57299805 8.000000
-168.64399719 86.13500214 -301.23199463 8.000000
-184.44400024 107.95899963 -316.03601074 8.000000
-179.37100220 106.62500000 -316.94100952 8.000000
-176.88499451 103.50900269 -313.49200439 8.000000
-209.36000061 124.97000122 -322.12200928 8.000000
-190.91299438 108.40000153 -309.58801270 8.000000
-187.42599487 104.89800262 -307.10299683 8.000000
-127.47599792 56.30770111 -272.13299561 8.000000
-202.45199585 119.86100006 -318.11898804 8.000000
-182.33700562 101.54100037 -306.11700439 8.000000
-198.52000427 116.75900269 -316.64898682 8.000000
-194.91499329 113.40699768 -315.08200073 8.000000
-213.36199951 128.93800354 -317.13198853 8.000000
-195.45100403 109.85700226 -301.62200928 8.000000
-191.30499268 107.07900238 -302.62200928 8.000000
-173.39700317 92.40270233 -291.58599854 8.000000
-210.37100220 125.93699646 -314.10400391 8.000000
-204.41600037 119.40200043 -309.10501099 8.000000
-206.94000244 122.36399841 -312.61401367 8.000000
-200.38900757 115.91999817 -309.10998535 8.000000
-199.45100403 113.34100342 -304.61801147 8.000000
-214.86500549 128.96299744 -312.04901123 8.000000
-211.38600159 124.93000031 -309.07400513 8.000000
-204.83200073 118.54399872 -304.03100586 8.000000
-131.91600037 75.33170319 -269.70700073 8.000000
-171.97700500 96.33439636 -282.66500854 8.000000
-205.95300293 124.35399628 -333.12399292 8.000000
-229.43099976 124.98200226 -298.07901001 8.000000
-173.01800537 91.29910278 -278.11999512 8.000000
-225.42100525 122.98899841 -295.60101318 8.000000
-201.88800049 121.44699860 -332.10101318 8.000000
-170.99899292 89.80079651 -273.62500000 8.000000
-197.02099609 118.22399902 -330.14898682 8.000000
-193.55499268 115.65799713 -327.17999268 8.000000
-188.43899536 113.48699951 -326.58700562 8.000000
-182.50300598 111.24800110 -325.15798950 8.000000
-164.37500000 83.41200256 -302.97500610 8.000000
-212.41700745 129.38400269 -332.12701416 8.000000
-207.46499634 124.83899689 -328.12399292 8.000000
-195.05700684 107.66000366 -281.57299805 8.000000
-171.52299500 100.76399994 -280.02600098 8.000000
-172.62600708 95.76619720 -274.55700684 8.000000
-139.78999329 85.87290192 -341.09201050 8.000000
-237.48399353 123.32099915 -287.12899780 8.000000
-214.41600037 130.88299561 -327.61801147 8.000000
-141.92199707 94.79979706 -274.24798584 8.000000
-202.95300293 113.34700012 -281.14001465 8.000000
-241.43699646 127.05200195 -281.69699097 8.000000
-199.02099609 113.24900055 -275.59899902 8.000000
-225.25199890 142.47500610 -329.10400391 8.000000
-217.77600098 134.00799561 -321.13000488 8.000000
-173.27099609 105.84500122 -271.18499756 8.000000
-237.02499390 127.14399719 -279.08401489 8.000000
-171.46899414 101.30899811 -269.13699341 8.000000
-218.99699402 121.28099823 -279.61599731 8.000000
-230.43200684 125.01300049 -279.68899536 8.000000
-207.89300537 117.93000031 -278.19299316 8.000000
-225.56100464 124.07199860 -278.02301025 8.000000
-203.85299683 116.50099945 -275.26998901 8.000000
-241.96000671 128.91700745 -276.64300537 8.000000
-225.46499634 141.82499695 -323.62600708 8.000000
-217.40100098 132.89100647 -316.10501099 8.000000
-130.65600586 63.73949814 -274.02499390 8.000000
-247.51199341 130.68099976 -273.57501221 8.000000
-212.91999817 123.50900269 -271.71200562 8.000000
-221.95399475 122.86399841 -300.08200073 8.000000
-203.38900757 123.46199799 -338.05099487 8.000000
-217.42100525 120.48100281 -299.07998657 8.000000
-240.97700500 130.35600281 -271.66000366 8.000000
-191.41999817 116.45099640 -333.07000732 8.000000
-217.52900696 125.61199951 -270.52999878 8.000000
-236.48500061 128.83200073 -274.13900757 8.000000
-171.97799683 114.87000275 -271.20001221 8.000000
-173.01800537 111.29699707 -267.61499023 8.000000
-185.44599915 114.50199890 -332.55398560 8.000000
-170.85400391 107.34799957 -264.68701172 8.000000
-207.81199646 126.54900360 -337.50500488 8.000000
-171.55599976 113.28399658 -263.10000610 8.000000
-254.48100281 133.85899353 -267.64999390 8.000000
-140.11700439 89.27459717 -273.41699219 8.000000
-246.98800659 133.30000305 -267.62899780 8.000000
-229.45300293 131.44400024 -265.70098877 8.000000
-240.98599243 132.81399536 -267.13598633 8.000000
-216.30099487 132.52900696 -333.60800171 8.000000
-235.95599365 131.90299988 -267.68301392 8.000000
-220.51699829 128.20300293 -267.07400513 8.000000
-260.48800659 135.68699646 -263.12298584 8.000000
-245.45100403 135.05200195 -262.75500488 8.000000
-252.49099731 128.11000061 -285.17898560 8.000000
-169.82099915 90.04589844 -295.69400024 8.000000
-221.38299561 137.40400696 -331.60000610 8.000000
-238.51600647 134.10200500 -262.59201050 8.000000
-247.54800415 128.23500061 -286.28698730 8.000000
-173.42599487 100.81300354 -274.14599609 8.000000
-242.48899841 125.29100037 -286.63198853 8.000000
-212.84199524 130.07299805 -260.81799316 8.000000
-127.33399963 36.98680115 -273.66299438 8.000000
-212.52499390 118.68599701 -282.08801270 8.000000
-263.99600220 135.45100403 -259.10598755 8.000000
-260.45700073 130.02200317 -283.11599731 8.000000
-233.04400635 123.62100220 -284.57501221 8.000000
-252.50700378 135.14700317 -262.10400391 8.000000
-206.80299377 123.12000275 -318.10501099 8.000000
-218.41000366 134.88699341 -327.62600708 8.000000
-213.23399353 129.03599548 -322.55899048 8.000000
-195.40600586 111.40100098 -308.08999634 8.000000
-125.48400116 41.30419922 -276.62899780 8.000000
-186.41299438 103.90200043 -302.11999512 8.000000
-254.98800659 136.31700134 -257.63000488 8.000000
-246.45399475 128.47900391 -281.15399170 8.000000
-272.46398926 132.38600159 -281.11300659 8.000000
-214.07200623 133.67500305 -257.02301025 8.000000
-243.45700073 136.54899597 -258.27700806 8.000000
-222.35499573 138.94500732 -326.62600708 8.000000
-267.47299194 131.97399902 -280.21701050 8.000000
-209.66000366 131.07000732 -256.95901489 8.000000
-140.82899475 96.79280090 -341.64700317 8.000000
-204.80799866 129.00399780 -253.73500061 8.000000
-253.55900574 130.04100037 -280.51199341 8.000000
-262.96398926 136.08399963 -253.62100220 8.000000
-249.47500610 136.72799683 -256.14999390 8.000000
-275.49600220 134.23100281 -277.09201050 8.000000
-256.95300293 137.10400391 -252.59899902 8.000000
-221.50000000 137.78999329 -321.63198853 8.000000
-260.48599243 132.31399536 -278.13299561 8.000000
-208.13499451 120.04199982 -273.48699951 8.000000
-201.02900696 127.68199921 -250.59300232 8.000000
-265.51501465 133.61999512 -275.59201050 8.000000
-212.25000000 136.00399780 -252.90600586 8.000000
-226.92900085 126.46499634 -273.72500610 8.000000
-252.49499512 131.26899719 -275.62298584 8.000000
-207.97399902 132.81900024 -252.13699341 8.000000
-217.90699768 136.96200562 -255.80099487 8.000000
-241.98300171 139.25399780 -253.10600281 8.000000
-280.48199463 135.00199890 -273.63900757 8.000000
-274.48098755 134.86900330 -272.13598633 8.000000
-260.98599243 133.31300354 -273.12899780 8.000000
-244.42399597 140.13099670 -248.07699585 8.000000
-239.46699524 141.69500732 -249.09100342 8.000000
-220.39199829 142.11799622 -251.82000732 8.000000
-269.57000732 134.87399292 -270.59698486 8.000000
-264.44400024 134.54899597 -269.59600830 8.000000
-178.48100281 98.81250000 -303.12600708 8.000000
-148.98500061 107.80100250 -276.16900635 8.000000
-289.98098755 134.84100342 -279.10198975 8.000000
-278.50299072 134.22799683 -281.27499390 8.000000
-284.98699951 135.30499268 -280.12799072 8.000000
-295.97100830 134.90199280 -278.02600098 8.000000
-287.48800659 133.31500244 -266.62799072 8.000000
-299.98300171 131.97099304 -261.59799194 8.000000
-295.49301147 132.51300049 -264.59500122 8.000000
-282.46600342 133.66799927 -265.14199829 8.000000
-277.98699951 134.21600342 -268.12298584 8.000000
-270.48199463 135.50599670 -265.63198853 8.000000
-307.46701050 130.96600342 -255.57899475 8.000000
-285.48001099 133.25300598 -260.13400269 8.000000
-275.49700928 134.89999390 -263.63500977 8.000000
-298.00100708 131.15199280 -256.69699097 8.000000
-168.44900513 92.89550018 -284.26300049 8.000000
-172.26800537 118.26999664 -262.47299194 8.000000
-241.96699524 128.86999512 -295.60800171 8.000000
-247.06399536 130.04299927 -292.66900635 8.000000
-255.42300415 132.49699402 -292.09399414 8.000000
-235.48199463 143.28599548 -246.12399292 8.000000
-235.49299622 126.79399872 -296.13400269 8.000000
-249.01899719 139.38499451 -245.64500427 8.000000
-251.97200012 137.70899963 -251.61399841 8.000000
-265.47500610 135.65600586 -264.12600708 8.000000
-215.51899719 139.75799561 -251.59800720 8.000000
-238.46000671 127.36399841 -291.62500000 8.000000
-292.42999268 135.55599976 -274.11700439 8.000000
-297.45800781 122.89499664 -238.59599304 8.000000
-302.01501465 135.23300171 -277.20999146 8.000000
-307.99700928 135.23399353 -276.16799927 8.000000
-311.44799805 126.91100311 -239.60699463 8.000000
-314.01199341 135.00700378 -275.50100708 8.000000
-313.00201416 133.19200134 -264.66000366 8.000000
-313.98498535 132.24800110 -259.62799072 8.000000
-313.97399902 126.86100006 -235.12500000 8.000000
-323.00500488 129.71499634 -234.66799927 8.000000
-329.34399414 130.07499695 -254.62500000 8.000000
-326.99099731 131.16299438 -245.63600159 8.000000
-311.48400879 128.32200623 -245.62300110 8.000000
-286.98800659 135.17199707 -274.62298584 8.000000
-317.03298950 129.10000610 -244.16700745 8.000000
-327.49200439 129.97599792 -238.62699890 8.000000
-321.53399658 131.06100464 -246.66200256 8.000000
-319.47399902 131.68899536 -257.67001343 8.000000
-344.02899170 122.84500122 -235.60899353 8.000000
-314.50299072 130.11000061 -249.67500305 8.000000
-332.48999023 129.81300354 -241.12699890 8.000000
-306.99499512 126.24199677 -242.14199829 8.000000
-331.46099854 130.93099976 -235.15199280 8.000000
-329.48901367 133.81599426 -274.66299438 8.000000
-324.49099731 134.94200134 -275.50000000 8.000000
-319.03100586 128.63600159 -237.64399719 8.000000
-307.92300415 124.99700165 -236.11399841 8.000000
-306.51800537 131.35200500 -262.13598633 8.000000
-302.48800659 130.38400269 -254.10899353 8.000000
-259.41101074 136.58999634 -245.64100647 8.000000
-322.95800781 129.90600586 -241.12699890 8.000000
-301.99301147 125.76799774 -243.64199829 8.000000
-318.99200439 130.74400330 -252.63600159 8.000000
-323.98599243 132.29600525 -263.13000488 8.000000
-317.99700928 133.11700439 -263.67800903 8.000000
-320.48599243 134.28599548 -270.63198853 8.000000
-301.50000000 134.98899841 -271.07199097 8.000000
-189.50700378 117.70700073 -338.17498779 8.000000
-261.43600464 134.53700256 -291.08801270 8.000000
-313.48400879 130.93299866 -254.58999634 8.000000
-140.77999878 88.83979797 -336.62701416 8.000000
-297.48599243 129.17799377 -251.68899536 8.000000
-269.99600220 135.37399292 -260.11199951 8.000000
-190.36000061 110.45899963 -315.07501221 8.000000
-186.56599426 111.62400055 -321.23199463 8.000000
-125.13700104 31.30789948 -280.12899780 8.000000
-109.41200256 27.35880089 -308.09600830 8.000000
-125.72100067 43.77479935 -272.03601074 8.000000
-209.50900269 118.24299622 -300.65798950 8.000000
-126.01300049 25.80570030 -279.63000488 8.000000
-177.40800476 110.01499939 -325.58300781 8.000000
-250.93600464 132.43400574 -295.53799438 8.000000
-137.72500610 84.61620331 -347.22100830 8.000000
-169.90499878 88.43520355 -287.27801514 8.000000
-241.51400757 142.04299927 -244.06599426 8.000000
-293.03100586 123.54100037 -241.05499268 8.000000
-288.47900391 128.24000549 -249.16400146 8.000000
-85.45480347 59.79909897 -335.21798706 8.000000
-82.89179993 54.45209885 -333.44799805 8.000000
-89.47550201 49.27399826 -333.81799316 8.000000
-95.98519897 44.30640030 -332.11898804 8.000000
-101.98799896 38.80179977 -328.13299561 8.000000
-98.99449921 59.29449844 -335.67199707 8.000000
-92.49389648 61.32099915 -336.59698486 8.000000
-98.95700073 53.85309982 -334.47399902 8.000000
-78.00779724 51.81689835 -333.74398804 8.000000
-98.96510315 48.93159866 -332.86999512 8.000000
-90.47380066 65.68009949 -338.80700684 8.000000
-77.85169983 41.77619934 -333.94799805 8.000000
-109.00000000 65.28009796 -336.66299438 8.000000
-104.01399994 64.70179749 -337.79800415 8.000000
-98.47100067 65.32389832 -338.59201050 8.000000
-106.01200104 59.72639847 -334.76199341 8.000000
-96.47499847 69.09210205 -341.85699463 8.000000
-105.37300110 35.87060165 -324.93701172 8.000000
-114.57399750 19.20479965 -292.71099854 8.000000
-112.43900299 15.31849957 -289.64300537 8.000000
-109.89199829 16.96579933 -294.50601196 8.000000
-106.43099976 41.85079956 -327.02499390 8.000000
-105.48000336 68.51860046 -340.94198608 8.000000
-80.93160248 34.30780029 -333.04998779 8.000000
-117.23400116 25.41900063 -293.98001099 8.000000
-120.52999878 26.79240036 -289.66299438 8.000000
-90.46340179 32.84640121 -330.47698975 8.000000
-150.43800354 109.49900055 -330.39599609 8.000000
-70.13150024 -42.20759964 -374.00201416 8.000000
-69.10310364 -17.20750046 -367.60400391 8.000000
-71.99449921 -10.19670010 -377.12899780 8.000000
-67.79660034 -16.16519928 -361.65600586 8.000000
-68.86969757 -31.71339989 -312.57699585 8.000000
-69.55919647 -2.18394995 -370.62500000 8.000000
-254.02900696 159.68899536 -315.21200562 8.000000
-249.50199890 159.27299500 -317.65899658 8.000000
-252.95100403 138.16000366 -242.63099670 8.000000
-286.51199341 121.98500061 -238.51499939 8.000000
-266.40200806 132.13900757 -239.69000244 8.000000
-281.07800293 124.55799866 -240.46600342 8.000000
-262.00698853 134.84800720 -241.61900330 8.000000
-276.00799561 126.83599854 -240.11000061 8.000000
-270.88400269 129.62399292 -239.71400452 8.000000
-273.51901245 130.35299683 -244.60200500 8.000000
-269.91699219 133.16700745 -247.16200256 8.000000
-285.47698975 124.75900269 -243.15600586 8.000000
-280.98498535 127.29399872 -245.13499451 8.000000
-113.89399719 23.86689949 -298.08801270 8.000000
-64.44940186 -34.70610046 -347.54901123 8.000000
-48.33200073 -82.14880371 -348.00900269 8.000000
-44.66170120 -84.19460297 -350.84899902 8.000000
-41.87279892 -88.18160248 -352.50601196 8.000000
-45.92630005 -78.19170380 -350.56298828 8.000000
-58.63270187 -74.25910187 -340.25601196 8.000000
-62.34059906 -77.52269745 -331.50601196 8.000000
-62.31150055 -74.53040314 -335.96301270 8.000000
-69.96160126 -72.02709961 -331.01300049 8.000000
-157.46899414 80.80770111 -305.07299805 8.000000
-72.66819763 -37.32820129 -305.42001343 8.000000
-72.48960114 -31.19519997 -302.63000488 8.000000
-72.25849915 -42.30270004 -311.03201294 8.000000
-70.62629700 -36.15219879 -310.69500732 8.000000
-65.96929932 -36.70169830 -321.60900879 8.000000
-26.86520004 -83.05339813 -404.50799561 8.000000
-60.58200073 -45.69179916 -332.67001343 8.000000
-62.43030167 -39.71749878 -349.54699707 8.000000
-40.85710144 -91.76809692 -374.41500854 8.000000
-38.81570053 -91.63099670 -355.51699829 8.000000
-39.63830185 -97.08660126 -376.82400513 8.000000
-68.60870361 -26.12700081 -344.41000366 8.000000
-65.45919800 -29.70100021 -346.55398560 8.000000
-60.68899918 -35.24200058 -351.26000977 8.000000
-20.18099976 -95.13279724 -402.45800781 8.000000
-22.05629921 -89.30010223 -403.71499634 8.000000
-17.29719925 -90.04160309 -405.44000244 8.000000
-58.26829910 -48.70059967 -336.29901123 8.000000
-24.46179962 -99.10500336 -357.73001099 8.000000
-11.46150017 -117.19300079 -398.07699585 8.000000
-10.36660004 -106.69100189 -404.38699341 8.000000
-12.88280010 -92.59970093 -406.92300415 8.000000
-22.41729927 -84.60199738 -406.54998779 8.000000
-13.88199997 -111.17600250 -401.55499268 8.000000
-18.91139984 -100.14600372 -401.06100464 8.000000
-31.02289963 -82.72509766 -400.65798950 8.000000
-33.48279953 -83.69309998 -395.12799072 8.000000
-30.42049980 -90.65940094 -389.10998535 8.000000
-28.85499954 -90.59839630 -394.09100342 8.000000
-27.31850052 -89.46790314 -398.82400513 8.000000
-25.60239983 -94.25559998 -396.69601440 8.000000
-27.17630005 -95.80010223 -391.72299194 8.000000
-40.75699997 -74.56719971 -380.09698486 8.000000
-67.83540344 -12.66230011 -352.60699463 8.000000
-37.99940109 -79.70179749 -381.13198853 8.000000
-37.28779984 -80.50930023 -387.59201050 8.000000
-35.11280060 -79.81349945 -398.73901367 8.000000
-69.88189697 -9.16736984 -347.08999634 8.000000
-70.15110016 -2.20708990 -350.17098999 8.000000
-23.35020065 -99.12249756 -396.03900146 8.000000
-40.61159897 -73.85780334 -401.20199585 8.000000
-34.57109833 -77.32080078 -403.18099976 8.000000
-31.43050003 -86.41159821 -385.11801147 8.000000
-32.77209854 -86.00219727 -390.58499146 8.000000
-140.97999573 94.30380249 -336.12899780 8.000000
-140.75500488 87.86699677 -331.60501099 8.000000
-72.23229980 26.84550095 -344.73498535 8.000000
-70.33249664 26.79680061 -349.58801270 8.000000
-68.70480347 29.31500053 -353.67498779 8.000000
-68.40740204 22.30159950 -357.11599731 8.000000
-69.87190247 22.28599930 -352.10198975 8.000000
-67.48490143 18.30369949 -361.12799072 8.000000
-75.31030273 8.82217979 -342.52200317 8.000000
-69.90740204 7.81170988 -353.10299683 8.000000
-70.49800110 31.80500031 -346.63299561 8.000000
-72.64730072 5.34652996 -346.45700073 8.000000
-70.57859802 3.28923011 -350.66000366 8.000000
-74.46260071 23.30159950 -341.61401367 8.000000
-73.75129700 0.82813299 -343.48400879 8.000000
-69.27420044 0.33017299 -354.60101318 8.000000
-69.60160065 36.82730103 -346.65798950 8.000000
-70.28320313 13.30490017 -352.54998779 8.000000
-68.78700256 12.27970028 -358.10101318 8.000000
-72.24199677 16.28160095 -348.02801514 8.000000
-62.26480103 -30.14889908 -352.07998657 8.000000
-64.31439972 -24.64889908 -351.61898804 8.000000
-64.00789642 -27.20450020 -356.12899780 8.000000
-65.89129639 -21.67600060 -358.13500977 8.000000
-66.36170197 -19.16850090 -350.63101196 8.000000
-68.99040222 -17.68269920 -355.12200928 8.000000
-71.98310089 -5.19579983 -344.62701416 8.000000
-13.87880039 -74.66079712 -376.29199219 8.000000
-30.09519958 -91.24279785 -382.68099976 8.000000
-39.86500168 -76.65660095 -375.10198975 8.000000
-35.51089859 -84.20890045 -382.13400269 8.000000
-56.58729935 -45.08800125 -354.32901001 8.000000
-43.84999847 -69.07810211 -372.65200806 8.000000
-9.34171009 -93.03160095 -367.76199341 8.000000
-33.49620056 -91.18289948 -371.07501221 8.000000
-38.27190018 -85.03849792 -371.66000366 8.000000
-38.82770157 -80.96130371 -367.12701416 8.000000
-41.89410019 -76.54199982 -367.07199097 8.000000
-25.38269997 -151.88400269 -390.11599731 8.000000
-283.95199585 130.64100647 -251.70300293 8.000000
-279.49899292 130.33099365 -249.11000061 8.000000
-348.45001221 119.26100159 -240.15199280 8.000000
-50.91170120 -62.08520126 -352.72601318 8.000000
-55.40980148 -50.64799881 -345.13598633 8.000000
-55.48619843 -54.19509888 -366.13101196 8.000000
-133.86000061 81.45960236 -348.53399658 8.000000
-136.73599243 81.59899902 -343.23400879 8.000000
-138.76199341 81.90699768 -337.58999634 8.000000
-138.36999512 78.85759735 -333.10198975 8.000000
-140.30700684 83.33010101 -329.09298706 8.000000
-140.20300293 80.74130249 -324.66299438 8.000000
-164.98800659 86.30269623 -297.62799072 8.000000
-141.89999390 88.33029938 -325.60501099 8.000000
-70.28099823 -12.71059990 -369.68600464 8.000000
-120.18299866 31.90259933 -291.46200562 8.000000
-141.55499268 92.78919983 -330.14801025 8.000000
-142.25000000 99.22070313 -331.74301147 8.000000
-251.49499512 131.27400208 -289.13000488 8.000000
-183.02000427 104.23400116 -310.67599487 8.000000
-173.96600342 95.83319855 -303.61499023 8.000000
-160.35800171 81.48989868 -299.81201172 8.000000
-144.75599670 89.40059662 -320.47500610 8.000000
-166.39100647 92.95970154 -309.55999756 8.000000
-232.47599792 125.35700226 -292.12298584 8.000000
-144.87899780 85.36170197 -317.05999756 8.000000
-214.89799500 118.48699951 -295.02700806 8.000000
-134.31300354 67.94049835 -325.04000854 8.000000
-232.83799744 149.53700256 -325.01300049 8.000000
-229.82899475 145.95300293 -323.07101440 8.000000
-142.82600403 79.36820221 -316.04400635 8.000000
-225.36599731 140.47200012 -318.57998657 8.000000
-142.84800720 75.38870239 -312.52499390 8.000000
-142.14199829 84.75789642 -321.68200684 8.000000
-274.94601440 137.98800659 -288.54098511 8.000000
-130.75199890 67.51429749 -329.92898560 8.000000
-133.00300598 64.79170227 -321.13500977 8.000000
-269.95599365 137.37199402 -290.59500122 8.000000
-266.45098877 135.41099548 -287.10699463 8.000000
-257.87100220 133.04200745 -287.54501343 8.000000
-138.38699341 75.34400177 -325.10501099 8.000000
-138.83399963 72.38140106 -319.58898926 8.000000
-136.88900757 68.37100220 -316.60400391 8.000000
-272.93301392 140.49299622 -294.55099487 8.000000
-267.94500732 139.97500610 -296.52999878 8.000000
-263.94799805 137.38900757 -294.56600952 8.000000
-128.36900330 63.44779968 -327.51300049 8.000000
-134.45199585 77.85500336 -340.60101318 8.000000
-129.94000244 75.93270111 -342.07199097 8.000000
-140.55599976 77.27909851 -320.15100098 8.000000
-136.38299561 72.87409973 -329.08700562 8.000000
-147.96899414 96.32569885 -322.10299683 8.000000
-146.41099548 104.36100006 -328.55398560 8.000000
-71.74859619 22.26829910 -347.02600098 8.000000
-148.44000244 89.38719940 -316.53698730 8.000000
-148.80200195 84.50579834 -312.82400513 8.000000
-68.92839813 17.29980087 -356.11099243 8.000000
-131.98800659 71.30380249 -333.13000488 8.000000
-134.78199768 75.05239868 -335.48001099 8.000000
-417.85900879 80.79779816 -280.31399536 8.000000
-411.86199951 74.44499969 -276.79998779 8.000000
-125.29399872 56.47309875 -321.56399536 8.000000
-416.98699951 102.23699951 -282.07901001 8.000000
-419.47900391 72.30729675 -281.14801025 8.000000
-408.03100586 90.88200378 -276.46899414 8.000000
-403.61199951 84.39749908 -271.50000000 8.000000
-425.39401245 78.80239868 -284.79299927 8.000000
-428.95800781 83.32460022 -287.18701172 8.000000
-414.97399902 97.29309845 -280.66500854 8.000000
-166.86500549 86.92199707 -292.55801392 8.000000
-400.77301025 82.23419952 -267.82000732 8.000000
-410.42898560 96.27330017 -278.24700928 8.000000
-414.38000488 70.76609802 -279.32101440 8.000000
-132.67900085 62.64270020 -316.21398926 8.000000
-417.92300415 106.76699829 -284.36199951 8.000000
-436.50299072 68.25869751 -293.10400391 8.000000
-412.54299927 105.30200195 -282.89099121 8.000000
-405.48800659 96.80370331 -276.12899780 8.000000
-399.67098999 87.40229797 -269.93899536 8.000000
-409.55899048 101.38099670 -279.99600220 8.000000
-416.39999390 75.80570221 -278.76400757 8.000000
-429.40301514 88.42099762 -285.89300537 8.000000
-402.97100830 91.29170227 -274.15701294 8.000000
-143.52400208 93.28800201 -325.14898682 8.000000
-432.06201172 67.77149963 -290.56100464 8.000000
-397.60501099 81.85279846 -263.55801392 8.000000
-414.95999146 112.28199768 -284.79699707 8.000000
-433.96200562 93.27999878 -286.73098755 8.000000
-406.39700317 106.22699738 -281.84500122 8.000000
-438.07299805 74.75579834 -291.42498779 8.000000
-407.76300049 74.37609863 -273.39599609 8.000000
-399.00900269 96.80650330 -273.09201050 8.000000
-404.86499023 101.65799713 -277.87799072 8.000000
-425.40399170 90.78089905 -283.86499023 8.000000
-412.83700562 79.77770233 -276.83599854 8.000000
-433.61300659 72.65570068 -289.86499023 8.000000
-422.03900146 86.31659698 -283.50799561 8.000000
-428.76300049 69.46309662 -286.83401489 8.000000
-392.54199219 90.83989716 -265.08499146 8.000000
-414.48999023 119.30300140 -286.52200317 8.000000
-402.57101440 111.87899780 -281.90499878 8.000000
-409.51599121 117.83399963 -284.95300293 8.000000
-435.94601440 99.99870300 -284.87200928 8.000000
-416.95498657 88.30079651 -280.68899536 8.000000
-440.56201172 80.45719910 -290.87500000 8.000000
-396.42199707 101.27400208 -272.72698975 8.000000
-426.99899292 95.81770325 -285.09399414 8.000000
-424.62899780 70.28710175 -283.90399170 8.000000
-431.47698975 77.30069733 -288.64599609 8.000000
-390.31799316 88.67179871 -260.85299683 8.000000
-408.51599121 81.31500244 -274.08898926 8.000000
-430.99200439 100.31700134 -285.87600708 8.000000
-394.12600708 97.36109924 -270.44799805 8.000000
-421.38800049 93.77210236 -282.86499023 8.000000
-413.13299561 86.33260345 -277.88500977 8.000000
-378.55499268 96.83999634 -255.54699707 8.000000
-400.48800659 135.80099487 -286.63900757 8.000000
-380.00201416 114.82399750 -272.10598755 8.000000
-389.94100952 133.27299500 -286.29400635 8.000000
-380.16000366 110.50000000 -267.93301392 8.000000
-420.51098633 112.84600067 -284.96099854 8.000000
-438.98901367 95.29620361 -286.67401123 8.000000
-395.14599609 86.42960358 -263.99798584 8.000000
-385.95599365 130.27400208 -284.74301147 8.000000
-395.49798584 137.42199707 -286.89199829 8.000000
-377.41400146 108.20600128 -264.28500366 8.000000
-398.38400269 92.23179626 -270.75399780 8.000000
-378.91101074 103.71099854 -261.73498535 8.000000
-168.88499451 92.43979645 -304.52801514 8.000000
-375.39199829 117.18299866 -271.27200317 8.000000
-374.08898926 96.84839630 -252.45799255 8.000000
-409.01098633 112.34300232 -283.98098755 8.000000
-431.99099731 117.78800201 -282.67700195 8.000000
-442.49398804 98.94979858 -286.23999023 8.000000
-419.98699951 118.31500244 -285.14300537 8.000000
-373.36999512 107.67099762 -260.76098633 8.000000
-401.27499390 105.62500000 -278.39401245 8.000000
-375.54699707 112.87500000 -266.56201172 8.000000
-375.41500854 102.73799896 -258.19601440 8.000000
-393.49099731 82.81199646 -259.62399292 8.000000
-369.85598755 98.76830292 -249.25700378 8.000000
-428.96600342 122.30400085 -282.96398926 8.000000
-371.37100220 113.69699860 -263.76599121 8.000000
-396.94699097 105.76999664 -275.69100952 8.000000
-371.39999390 105.21700287 -256.19299316 8.000000
-404.42401123 76.79709625 -270.19699097 8.000000
-398.01901245 109.85199738 -280.06600952 8.000000
-386.50900269 142.40600586 -288.31201172 8.000000
-369.54901123 129.36999512 -280.43301392 8.000000
-377.46899414 137.74499512 -286.23400879 8.000000
-423.50399780 122.06500244 -285.58801270 8.000000
-372.49099731 136.81399536 -285.11099243 8.000000
-370.55599976 120.96399689 -272.54998779 8.000000
-141.40600586 105.31099701 -337.59899902 8.000000
-388.45300293 84.73850250 -258.26699829 8.000000
-390.72601318 95.94629669 -266.90798950 8.000000
-403.00500488 116.81900024 -283.53399658 8.000000
-390.87600708 146.03799438 -290.72799683 8.000000
-443.99398804 104.61100006 -284.98001099 8.000000
-431.98599243 125.25000000 -280.08898926 8.000000
-398.34298706 115.11199951 -281.94299316 8.000000
-436.49200439 105.23799896 -284.94799805 8.000000
-426.56100464 102.82499695 -285.30899048 8.000000
-162.99699402 83.79399872 -293.63299561 8.000000
-413.36999512 91.74479675 -278.86898804 8.000000
-391.94699097 102.77300262 -270.69500732 8.000000
-422.88101196 98.69750214 -284.38900757 8.000000
-368.85800171 111.20899963 -259.72000122 8.000000
-385.93600464 89.29299927 -258.26400757 8.000000
-410.99099731 123.31400299 -286.58401489 8.000000
-387.85800171 94.73840332 -262.73599243 8.000000
-393.92498779 112.73500061 -279.28100586 8.000000
-364.49301147 129.82299805 -279.60998535 8.000000
-368.83700562 117.49900055 -267.81799316 8.000000
-368.51699829 134.38699341 -283.02398682 8.000000
-405.00000000 121.38800049 -285.39099121 8.000000
-367.35101318 125.98200226 -276.90701294 8.000000
-392.35598755 107.70400238 -274.33499146 8.000000
-365.89898682 123.13800049 -272.72399902 8.000000
-381.98599243 145.75999451 -290.17700195 8.000000
-367.43301392 109.26000214 -255.16499329 8.000000
-431.49600220 106.75800323 -285.44500732 8.000000
-398.98400879 120.29699707 -283.64401245 8.000000
-366.91198730 116.68199921 -263.19799805 8.000000
-377.02801514 144.53799438 -289.32699585 8.000000
-363.54098511 121.44000244 -268.50698853 8.000000
-387.50100708 102.80999756 -267.61300659 8.000000
-368.83700562 105.18199921 -251.72099304 8.000000
-381.06500244 90.30519867 -256.45901489 8.000000
-370.44000244 141.95199585 -287.85598755 8.000000
-359.54699707 131.97900391 -279.88900757 8.000000
-364.00299072 136.86199951 -284.06698608 8.000000
-405.95300293 126.74500275 -286.45498657 8.000000
-424.52999878 107.76699829 -284.97100830 8.000000
-435.50799561 110.32299805 -283.76599121 8.000000
-383.50799561 96.32140350 -259.60699463 8.000000
-389.01098633 113.84999847 -278.09298706 8.000000
-360.55398560 124.95700073 -271.02700806 8.000000
