-28.22310066 -13.54520035 -51.02859879 4.000000
-27.16589928 -12.06890011 -51.48229980 4.000000
-30.06559944 -15.56110001 -49.40430069 4.000000
-29.22100067 -14.55080032 -50.01390076 4.000000
-29.25639915 -15.54399967 -50.54339981 4.000000
-28.66860008 -14.56630039 -50.98740005 4.000000
-29.57850075 -16.56739998 -50.42179871 4.000000
-28.65940094 -16.06299973 -51.47729874 4.000000
-27.68199921 -28.57340050 -47.01470184 4.000000
-27.68079948 -27.42639923 -47.78979874 4.000000
-32.64929962 -17.54809952 -48.34799957 4.000000
-32.12139893 -16.55100060 -48.36629868 4.000000
-31.06150055 -15.55319977 -48.80099869 4.000000
-26.69230080 -27.96059990 -47.36059952 4.000000
-20.06730080 -26.39039993 -49.72980118 4.000000
-37.02249908 -22.98570061 -44.80759811 4.000000
-35.76340103 -41.50320053 -41.42800140 4.000000
-37.12160110 -22.01289940 -45.42390060 4.000000
-19.13299942 -26.01000023 -50.40969849 4.000000
-18.78520012 -25.19160080 -51.16550064 4.000000
-18.73259926 -24.13339996 -52.08089828 4.000000
-35.65589905 -19.53319931 -47.40980148 4.000000
-14.93200016 -20.89299965 -60.36399841 4.000000
-13.19629955 -16.56189919 -66.50810242 4.000000
-9.22132969 -12.56270027 -70.54479980 4.000000
-8.71137047 -11.56789970 -71.03530121 4.000000
-10.84619999 -13.07470036 -69.16989899 4.000000
-7.83780003 -11.59809971 -71.73229980 4.000000
-20.62400055 -27.47500038 -48.81480026 4.000000
-12.08679962 -15.07240009 -67.91449738 4.000000
-42.68519974 -42.06240082 -44.46260071 4.000000
-30.11400032 -36.93259811 -42.30569839 4.000000
-30.62820053 -14.52359962 -49.42010117 4.000000
-45.44459915 -52.55590057 -45.27719879 4.000000
-44.15810013 -51.56420135 -44.54000092 4.000000
-44.52959824 -52.56579971 -44.70859909 4.000000
-44.20019913 -53.56069946 -44.47000122 4.000000
-43.61800003 -52.56700134 -44.13370132 4.000000
-43.20949936 -51.55749893 -43.94680023 4.000000
-47.45500183 -53.98590088 -47.28900146 4.000000
-45.91500092 -53.54190063 -45.79529953 4.000000
-45.84889984 -55.06330109 -45.83440018 4.000000
-45.09989929 -53.56250000 -45.10010147 4.000000
-44.70470047 -56.55479813 -44.48089981 4.000000
-43.95859909 -55.64770126 -44.18249893 4.000000
-43.11550140 -55.08840179 -43.56250000 4.000000
-44.15309906 -56.57300186 -43.51480103 4.000000
-11.50739956 -15.61229992 -68.87120056 4.000000
-49.11619949 -55.52119827 -49.10499954 4.000000
-48.27410126 -55.58729935 -48.39429855 4.000000
-47.63109970 -56.55220032 -48.04330063 4.000000
-47.06159973 -57.54359818 -47.58610153 4.000000
-46.39720154 -56.58190155 -46.80619812 4.000000
-48.63109970 -56.54119873 -49.05970001 4.000000
-46.09569931 -58.56489944 -46.03480148 4.000000
-45.58720016 -58.08530045 -45.04109955 4.000000
-50.70809937 -54.62379837 -49.39360046 4.000000
-50.12329865 -55.48020172 -49.65700150 4.000000
-12.53649998 -16.05769920 -67.37689972 4.000000
-38.87540054 -46.50130081 -42.25579834 4.000000
-38.00659943 -23.52070045 -43.75289917 4.000000
-16.97839928 -23.86190033 -53.78300095 4.000000
-18.17970085 -23.55660057 -52.99160004 4.000000
-41.57089996 -50.07529831 -43.19499969 4.000000
-42.19169998 -51.06010056 -43.47969818 4.000000
-54.11190033 -55.88010025 -51.20169830 4.000000
-52.17670059 -55.03279877 -50.03710175 4.000000
-53.13769913 -56.47370148 -51.59669876 4.000000
-52.22949982 -56.16799927 -50.84529877 4.000000
-49.57400131 -67.89730072 -59.12649918 4.000000
-48.68330002 -68.05979919 -58.49760056 4.000000
-51.18180084 -56.05759811 -50.50230026 4.000000
-47.63759995 -67.95639801 -58.54610062 4.000000
-40.13010025 -25.02639961 -43.30020142 4.000000
-52.27439880 -57.22710037 -51.80960083 4.000000
-47.62739944 -68.41259766 -59.56930161 4.000000
-49.68410110 -68.56259918 -59.99580002 4.000000
-49.96979904 -59.42900085 -51.71480179 4.000000
-50.05199814 -58.47430038 -51.15670013 4.000000
-49.44300079 -57.66960144 -50.21979904 4.000000
-44.76829910 -54.56140137 -44.88930130 4.000000
-49.10369873 -59.02610016 -50.57289886 4.000000
-48.49470139 -58.49729919 -49.66749954 4.000000
-48.94620132 -60.45809937 -51.20159912 4.000000
-45.05690002 -55.57080078 -45.12689972 4.000000
-48.37699890 -60.13980103 -50.32300186 4.000000
-47.71889877 -60.07490158 -49.46530151 4.000000
-40.53969955 -49.59809875 -42.66830063 4.000000
-54.49610138 -59.27550125 -55.27460098 4.000000
-54.17739868 -58.55199814 -54.50550079 4.000000
-53.24280167 -58.65050125 -53.90719986 4.000000
-54.12210083 -59.99020004 -56.06949997 4.000000
-53.37129974 -59.25080109 -54.78580093 4.000000
-53.23270035 -60.11159897 -55.43840027 4.000000
-52.55080032 -59.42589951 -54.14939880 4.000000
-42.69549942 -29.55859947 -42.01770020 4.000000
-52.55440140 -60.97040176 -55.60789871 4.000000
-52.02040100 -60.44850159 -54.65549850 4.000000
-51.25450134 -60.60440063 -53.92630005 4.000000
-51.53179932 -61.96900177 -55.12870026 4.000000
-50.85770035 -61.66249847 -54.35850143 4.000000
-50.95830154 -62.91960144 -55.18040085 4.000000
-50.28689957 -61.61669922 -53.41149902 4.000000
-50.18019867 -62.55899811 -53.99900055 4.000000
-50.89780045 -67.17189789 -59.34569931 4.000000
-50.06050110 -63.47890091 -54.58100128 4.000000
-50.70610046 -68.08560181 -60.47290039 4.000000
-47.67570114 -57.55910110 -48.50329971 4.000000
-51.00749969 -68.86859894 -61.68370056 4.000000
-50.13830185 -69.49060059 -61.55699921 4.000000
-46.92520142 -58.63219833 -47.80739975 4.000000
-49.11240005 -69.84390259 -61.65269852 4.000000
-47.41529846 -58.62030029 -48.80590057 4.000000
-50.60689926 -69.93260193 -62.62659836 4.000000
-49.60290146 -70.39759827 -62.64009857 4.000000
-51.60300064 -70.32620239 -63.24959946 4.000000
-47.05889893 -60.02709961 -48.58280182 4.000000
-51.73080063 -71.11360168 -64.43840027 4.000000
-50.67340088 -71.45570374 -64.10639954 4.000000
-47.10029984 -61.05009842 -49.04539871 4.000000
-49.67710114 -71.81310272 -64.75689697 4.000000
-47.72230148 -61.07389832 -49.96630096 4.000000
-52.00830078 -73.86569977 -67.22450256 4.000000
-50.67259979 -74.47429657 -67.07260132 4.000000
-49.71950150 -74.48880005 -67.57929993 4.000000
-48.48759842 -61.48149872 -51.15470123 4.000000
-47.51959991 -62.52830124 -50.09769821 4.000000
-48.05270004 -62.52220154 -51.08359909 4.000000
-49.45849991 -61.45660019 -52.17649841 4.000000
-47.72689819 -63.56819916 -50.97549820 4.000000
-49.11309814 -64.51920319 -54.04050064 4.000000
-48.73759842 -64.08159637 -52.96340179 4.000000
-48.18590164 -64.06169891 -51.99549866 4.000000
-49.94089890 -64.87460327 -55.67380142 4.000000
-49.06850052 -65.49250031 -55.06069946 4.000000
-48.44670105 -66.39980316 -54.64690018 4.000000
-49.48369980 -65.91139984 -56.11600113 4.000000
-48.41839981 -66.84980011 -55.63389969 4.000000
-50.38320160 -65.31860352 -56.72900009 4.000000
-50.51219940 -66.40329742 -58.12149811 4.000000
-49.54740143 -67.36440277 -57.65689850 4.000000
-51.55220032 -58.93669891 -52.65769958 4.000000
-50.69020081 -59.56560135 -52.48960114 4.000000
-50.58810043 -60.50609970 -53.07880020 4.000000
-51.76599884 -62.61420059 -55.92789841 4.000000
-42.20920181 -54.55089951 -42.97389984 4.000000
-51.13840103 -63.52819824 -56.03430176 4.000000
-52.01879883 -63.44850159 -57.11679840 4.000000
-51.42610168 -64.35410309 -57.20709991 4.000000
-52.03580093 -64.45379639 -58.10630035 4.000000
-50.97010040 -65.32209778 -57.75230026 4.000000
-52.84529877 -75.93599701 -69.77899933 4.000000
-52.50920105 -76.95559692 -70.17440033 4.000000
-53.31349945 -76.74199677 -70.87999725 4.000000
-53.00189972 -78.97810364 -72.14689636 4.000000
-53.95669937 -79.02839661 -73.04879761 4.000000
-51.49079895 -67.91259766 -61.16180038 4.000000
-49.06539917 -69.33709717 -60.65950012 4.000000
-49.68690109 -56.56299973 -49.99129868 4.000000
-50.59030151 -56.96910095 -50.65689850 4.000000
-47.64920044 -69.41480255 -61.59329987 4.000000
-55.14329910 -57.52030182 -54.01900101 4.000000
-54.07860184 -57.90930176 -53.63230133 4.000000
-51.74649811 -73.13990021 -66.41120148 4.000000
-50.68709946 -73.12030029 -65.93139648 4.000000
-51.47859955 -74.88220215 -67.74220276 4.000000
-49.66910172 -73.59159851 -66.96379852 4.000000
-55.68550110 -55.18410110 -50.36569977 4.000000
-54.20069885 -55.11600113 -50.42839813 4.000000
-51.35219955 -57.75540161 -51.73229980 4.000000
-52.64049911 -78.00150299 -71.09049988 4.000000
-51.68949890 -77.59950256 -70.44560242 4.000000
-54.67419815 -57.04330063 -53.01240158 4.000000
-53.56940079 -57.36650085 -52.69559860 4.000000
-51.68989944 -59.56650162 -53.48979950 4.000000
-49.54040146 -62.49020004 -53.10329819 4.000000
-49.48249817 -63.43920135 -53.62030029 4.000000
-48.75999832 -63.09289932 -52.44540024 4.000000
-48.09719849 -65.03869629 -52.53789902 4.000000
-47.65729904 -65.05419922 -51.50870132 4.000000
-47.56359863 -66.02220154 -52.05530167 4.000000
-47.27700043 -64.58039856 -50.45909882 4.000000
-9.77799988 -13.55060005 -70.10839844 4.000000
-54.02420044 -61.42169952 -57.64649963 4.000000
-53.56650162 -60.95999908 -56.60250092 4.000000
-53.01950073 -61.95100021 -57.11819839 4.000000
-55.21139908 -60.60910034 -57.42520142 4.000000
-48.98749924 -66.88369751 -56.62020111 4.000000
-51.97180176 -65.90540314 -59.65060043 4.000000
-43.85459900 -54.53799820 -44.25880051 4.000000
-51.45169830 -65.28649902 -58.81660080 4.000000
-47.22079849 -66.06870270 -50.98189926 4.000000
-45.74499893 -56.56200027 -45.94459915 4.000000
-46.64989853 -62.55979919 -48.51010132 4.000000
-46.75450134 -63.56480026 -48.96030045 4.000000
-47.16730118 -63.55820084 -50.00590134 4.000000
-54.88940048 -61.32880020 -58.73189926 4.000000
-54.28829956 -62.64640045 -59.41870117 4.000000
-53.82770157 -62.17499924 -58.38270187 4.000000
-53.71110153 -63.58219910 -59.98630142 4.000000
-53.36399841 -63.33599854 -58.76750183 4.000000
-48.03599930 -66.50620270 -53.55609894 4.000000
-48.76179886 -66.57230377 -57.94110107 4.000000
-49.67990112 -71.04799652 -63.50970078 4.000000
-52.01850128 -72.35759735 -65.71279907 4.000000
-52.30120087 -75.11239624 -68.38099670 4.000000
-50.70909882 -75.45529938 -68.62000275 4.000000
-46.56039810 -61.04959869 -48.05390167 4.000000
-48.58560181 -65.51609802 -54.04159927 4.000000
-52.51219940 -67.46299744 -62.10350037 4.000000
-52.13729858 -67.02749634 -61.02939987 4.000000
-51.40950012 -67.28540039 -60.27949905 4.000000
-51.66859818 -69.04579926 -62.51369858 4.000000
-49.90689850 -66.30149841 -57.19300079 4.000000
-51.67580032 -76.54660034 -69.51540375 4.000000
-51.18889999 -72.07740021 -64.98090363 4.000000
-49.68679810 -72.66020203 -65.40859985 4.000000
-49.20330048 -72.72429657 -66.36009979 4.000000
-52.46409988 -69.99069977 -64.07099915 4.000000
-52.59889984 -73.01129913 -67.05010223 4.000000
-5.16930008 2.11440992 -147.02600098 4.000000
-3.68206000 1.92631996 -146.99000549 4.000000
-2.66234994 1.55716002 -147.54200745 4.000000
-56.18420029 -50.03829956 -46.53210068 4.000000
-55.19749832 -49.54280090 -46.54389954 4.000000
-53.61399841 -77.53469849 -71.57070160 4.000000
-52.52149963 -68.47910309 -63.10620117 4.000000
-53.66719818 -78.05660248 -72.50469971 4.000000
-52.91289902 -73.88780212 -68.24389648 4.000000
-8.67879963 -13.56079960 -70.99089813 4.000000
-42.14130020 -52.56610107 -43.56639862 4.000000
-53.19739914 -64.57060242 -59.98830032 4.000000
-52.63040161 -63.52809906 -58.03219986 4.000000
-52.63529968 -64.52839661 -59.02439880 4.000000
-39.73099899 -49.04050064 -41.96559906 4.000000
-39.06090164 -48.62319946 -41.08069992 4.000000
-40.19400024 -50.55899811 -41.98939896 4.000000
-39.62620163 -49.59389877 -41.01979828 4.000000
-55.61930084 -56.29370117 -52.20410156 4.000000
-55.17359924 -55.74359894 -51.32379913 4.000000
-52.70880127 -58.09949875 -52.95619965 4.000000
-53.74470139 -80.07379913 -73.46839905 4.000000
-53.08010101 -80.02989960 -72.57659912 4.000000
-6.59045982 -7.36734009 -74.30609894 4.000000
-5.59400988 -7.88744020 -74.27940369 4.000000
-48.61460114 -71.85350037 -65.71530151 4.000000
-38.15679932 -46.56790161 -41.01399994 4.000000
-53.13830185 -65.03119659 -61.01660156 4.000000
-52.45640182 -65.91230011 -61.56909943 4.000000
-29.28879929 -13.54230022 -49.56069946 4.000000
-48.17549896 -70.01309967 -62.53369904 4.000000
-37.46509933 -45.95930099 -40.30270004 4.000000
-38.56320190 -47.61000061 -41.06740189 4.000000
-52.40359879 -71.21119690 -65.34040070 4.000000
-53.06980133 -71.51119995 -66.56420135 4.000000
-53.55250168 -74.02230072 -69.59269714 4.000000
-53.43759918 -75.01909637 -70.14479828 4.000000
-43.22269821 -53.55300140 -43.93410110 4.000000
-56.65700150 -60.50199890 -59.03039932 4.000000
-41.72809982 -53.54719925 -42.94520187 4.000000
-41.07749939 -53.59939957 -42.09439850 4.000000
-46.65060043 -68.90879822 -60.06689835 4.000000
-49.25510025 -36.13100052 -44.21250153 4.000000
-57.18870163 -54.60530090 -49.93619919 4.000000
-57.23310089 -55.75780106 -51.34980011 4.000000
-56.69219971 -56.36600113 -52.13169861 4.000000
-53.59830093 -73.01399994 -68.55680084 4.000000
-49.55160141 -60.27140045 -52.19089890 4.000000
-26.73970032 -35.55989838 -44.18679810 4.000000
-53.66839981 -44.08449936 -44.90639877 4.000000
-56.70439911 -52.48820114 -48.11410141 4.000000
-54.18429947 -45.05889893 -45.00299835 4.000000
-48.70100021 -70.66269684 -63.42050171 4.000000
-46.33789825 -62.04679871 -47.45399857 4.000000
-46.51819992 -60.03150177 -47.57929993 4.000000
-46.40840149 -61.05899811 -46.46739960 4.000000
-46.61610031 -65.04199982 -49.53900146 4.000000
-47.53210068 -67.34059906 -57.12839890 4.000000
-48.20790100 -68.61060333 -60.95809937 4.000000
-55.66820145 -79.05760193 -78.00759888 4.000000
-54.91619873 -79.99980164 -77.09400177 4.000000
-55.06150055 -80.52159882 -78.04540253 4.000000
-56.13219833 -81.93830109 -80.06520081 4.000000
-55.29990005 -82.67710114 -80.91770172 4.000000
-54.48569870 -80.05120087 -76.05549622 4.000000
-27.66790009 -36.06019974 -43.93960190 4.000000
-28.57200050 -36.98369980 -43.27230072 4.000000
-55.59109879 -57.33589935 -55.66809845 4.000000
-55.17819977 -57.97090149 -56.55139923 4.000000
-54.88209915 -59.20429993 -57.43460083 4.000000
-47.65039825 -65.05120087 -54.50970078 4.000000
-49.97330093 -63.75460052 -55.81219864 4.000000
-19.67659950 -28.05480003 -48.98130035 4.000000
-32.14920044 -37.64899826 -41.57720184 4.000000
-41.25339890 -52.54000092 -42.89989853 4.000000
-41.17110062 -51.06299973 -43.01539993 4.000000
-36.83750153 -44.48540115 -40.41719818 4.000000
-36.10400009 -43.09809875 -40.02610016 4.000000
-35.63710022 -42.09270096 -40.01879883 4.000000
-14.40979958 -18.94190025 -63.79850006 4.000000
-10.65880013 -14.56439972 -69.47630310 4.000000
-21.16970062 -15.36159992 -32.86289978 4.000000
-21.67340088 -15.93999958 -31.91769981 4.000000
-13.80550003 -18.10519981 -65.09709930 4.000000
-13.20149994 -18.06769943 -66.01339722 4.000000
-3.72649002 -0.58110601 -102.51000214 4.000000
-31.19829941 -38.34799957 -40.76660156 4.000000
-30.69529915 -37.61040115 -41.55540085 4.000000
-19.24449921 -27.12829971 -49.63719940 4.000000
-5.15511990 -2.03970003 -89.99220276 4.000000
-4.55555010 -2.96458006 -88.48809814 4.000000
-56.61709976 -57.38859940 -54.15890121 4.000000
-5.66535997 -9.03349018 -73.44760132 4.000000
-4.67927980 -4.05252981 -81.99410248 4.000000
-7.94722986 6.50566006 -107.93299866 4.000000
-7.94821978 5.52489996 -106.44100189 4.000000
-7.70839024 5.43236017 -108.00000000 4.000000
-4.16346979 -6.52398014 -76.46520233 4.000000
-7.99982977 8.96382999 -109.45500183 4.000000
-7.90252018 7.40630007 -109.04699707 4.000000
-15.57339954 -21.00359917 -59.43840027 4.000000
-4.99376011 -1.45911002 -94.46800232 4.000000
-4.49327993 -2.99553990 -94.48780060 4.000000
-4.51776981 -2.50239992 -95.49729919 4.000000
-4.17570019 -3.55870008 -95.49579620 4.000000
-4.48881006 -2.49306989 -96.97810364 4.000000
-8.55325985 6.01957989 -104.94699860 4.000000
-7.43765020 5.00407982 -108.97200012 4.000000
-7.66354990 6.44163990 -109.49400330 4.000000
-7.46705008 5.48814011 -109.99800110 4.000000
-7.72033978 6.93292999 -110.49700165 4.000000
-3.66658998 -4.53920984 -82.49099731 4.000000
-3.79332995 -4.19773006 -83.53399658 4.000000
-4.29923010 -3.68783998 -85.02660370 4.000000
-3.09676003 -4.99629021 -84.48979950 4.000000
-7.61224985 4.46678019 -105.98600006 4.000000
-3.73256993 -3.07567000 -100.01399994 4.000000
-3.17950010 -3.05780005 -100.99500275 4.000000
-3.10361004 -2.51215005 -101.95999908 4.000000
-2.03731990 -3.44894004 -102.42800140 4.000000
-7.92356014 7.96371984 -109.99600220 4.000000
-7.91138983 7.99366999 -111.07199860 4.000000
-7.68251991 6.43898010 -111.49700165 4.000000
-7.21713018 4.92918015 -111.49700165 4.000000
-6.98514986 3.99306011 -110.98699951 4.000000
-7.20328999 4.43323994 -109.99700165 4.000000
-7.11776018 3.95882010 -108.99400330 4.000000
-6.55791998 3.04201007 -111.46900177 4.000000
-3.60559011 -1.53310001 -101.96800232 4.000000
-17.50029945 -24.86919975 -52.25690079 4.000000
-7.26150990 3.40728998 -105.50900269 4.000000
-12.51739979 -17.53249931 -66.79589844 4.000000
-1.20516002 -1.58284998 -106.50900269 4.000000
-29.18029976 -37.55690002 -42.48920059 4.000000
-16.80240059 -23.19599915 -54.61270142 4.000000
-16.03790092 -23.41769981 -55.38899994 4.000000
-7.45717001 4.51578999 -107.47399902 4.000000
-50.16180038 -76.13539886 -69.44159698 4.000000
-15.10719967 -22.02249908 -58.96089935 4.000000
-40.17890167 -51.56190109 -41.49980164 4.000000
-3.23146009 -6.19537020 -77.57929993 4.000000
-7.83248997 3.84531999 -102.52500153 4.000000
-4.65948009 -7.50345993 -74.93499756 4.000000
-5.30993986 -2.78850007 -85.56780243 4.000000
-3.86995006 -4.12645006 -96.53070068 4.000000
-4.04868984 -3.52624989 -97.47170258 4.000000
-3.66738009 -4.05669022 -98.99189758 4.000000
-4.51100016 -2.97285008 -91.99690247 4.000000
-4.94947004 -1.93215001 -93.46369934 4.000000
-4.22341013 -3.57677007 -92.99459839 4.000000
-9.43723011 7.10126019 -128.95599365 4.000000
-9.12147999 6.48663998 -127.98600006 4.000000
-9.09858990 6.98042011 -129.98300171 4.000000
-8.94299984 7.43974018 -130.98399353 4.000000
-4.02693987 -3.02253008 -98.95719910 4.000000
-1.96871996 -2.80801010 -103.35199738 4.000000
-8.13284969 8.94015026 -111.49700165 4.000000
-8.04835033 6.98211002 -112.52700043 4.000000
-19.56089973 -0.49491701 -67.90959930 4.000000
-7.47165012 5.52417994 -112.50700378 4.000000
-7.08454990 4.46842003 -112.49900055 4.000000
-8.98733997 8.08275986 -119.40100098 4.000000
-8.63982964 8.45366955 -121.50000000 4.000000
-8.52180004 7.01827002 -118.93099976 4.000000
-8.20681000 6.93327999 -120.00099945 4.000000
-7.98574018 6.00046015 -119.46900177 4.000000
-8.68552017 0.93820900 -142.99600220 4.000000
-7.05021000 4.48268986 -114.48500061 4.000000
-6.61957979 3.46173000 -114.99700165 4.000000
-7.04687023 4.49923992 -116.00700378 4.000000
-6.16955996 2.95507002 -115.99600220 4.000000
-7.01442003 3.99175000 -117.02700043 4.000000
-8.91732025 0.74227798 -147.41000366 4.000000
-9.67992020 7.93913984 -117.99500275 4.000000
-9.02089024 7.06511021 -117.47799683 4.000000
-7.93931007 5.61984015 -117.01200104 4.000000
-8.33607006 6.34520006 -118.04100037 4.000000
-7.52571011 5.02996016 -118.48600006 4.000000
-7.44273996 5.07525015 -120.47799683 4.000000
-7.64810991 5.45837021 -114.49800110 4.000000
-7.19776011 4.93459988 -113.49700165 4.000000
-3.34766006 -4.12884998 -100.06999969 4.000000
-8.10883045 5.97104979 -123.52300262 4.000000
-7.90286016 5.85497999 -122.47599792 4.000000
-8.76323986 7.90937996 -122.46099854 4.000000
-0.49796900 -0.27688801 -108.84600067 4.000000
-4.09431982 -4.02593994 -94.49120331 4.000000
-8.09547043 5.99862003 -115.49700165 4.000000
-8.52245045 8.47469044 -112.55799866 4.000000
-8.10361004 6.46584988 -113.51799774 4.000000
-6.97144985 4.00556993 -120.01200104 4.000000
-4.17618990 2.40898991 -145.98300171 4.000000
-6.73622990 3.42219996 -120.99600220 4.000000
-7.69998980 5.43185997 -121.49600220 4.000000
-7.14344978 4.45779991 -121.49800110 4.000000
-7.62890005 2.05177999 -139.00199890 4.000000
-4.18315983 2.43753004 -139.99699402 4.000000
-4.20937014 2.55370998 -142.49200439 4.000000
-5.23670006 1.77271998 -148.06700134 4.000000
-0.69046098 1.33284998 -115.48300171 4.000000
-2.21778011 1.36722004 -117.51300049 4.000000
-1.16214001 1.03460002 -117.01300049 4.000000
-4.64560986 -2.53452992 -90.99040222 4.000000
-4.50278997 -2.95459008 -89.97949982 4.000000
-2.66589999 2.31110001 -146.43699646 4.000000
-34.89429855 -40.91630173 -40.84680176 4.000000
-34.28480148 -39.98669815 -40.93379974 4.000000
-33.25429916 -38.48540115 -41.43830109 4.000000
-51.95080185 -63.44329834 -60.56620026 4.000000
-49.90309906 -66.77649689 -59.32450104 4.000000
-48.66730118 -67.04329681 -59.50759888 4.000000
-50.18399811 -66.06379700 -60.49649811 4.000000
-49.46620178 -67.78489685 -61.72050095 4.000000
-48.80160141 -67.68869781 -60.90539932 4.000000
-54.19580078 -57.61650085 -55.45999908 4.000000
-48.69010162 -65.56839752 -56.99340057 4.000000
-11.69929981 5.40532017 -140.48599243 4.000000
-10.63129997 5.02831984 -140.01899719 4.000000
-9.63566017 4.49371004 -139.51899719 4.000000
-10.20629978 4.38787985 -140.98300171 4.000000
-9.33185959 3.77692008 -140.96400452 4.000000
-9.46010971 3.58938003 -142.04200745 4.000000
-9.04916954 2.46823001 -143.01699829 4.000000
-33.44409943 -39.27849960 -40.68470001 4.000000
-10.47679996 6.14000988 -137.05099487 4.000000
-9.71796989 5.42039013 -136.48800659 4.000000
-8.97721958 4.56259012 -135.53999329 4.000000
-10.09430027 5.00682020 -138.54699707 4.000000
-8.92300987 4.13140011 -138.04100037 4.000000
-8.45042038 3.34904003 -137.44500732 4.000000
-7.54266977 3.99498010 -126.50800323 4.000000
-7.52172995 4.54023981 -125.52200317 4.000000
-7.01200008 2.99727011 -125.51000214 4.000000
-7.16282988 3.94513011 -124.49900055 4.000000
-7.01365995 2.96966004 -124.02100372 4.000000
-7.03101015 3.48100996 -123.02100372 4.000000
-6.72233009 2.42388010 -122.99199677 4.000000
-8.00279999 4.52142000 -130.03999329 4.000000
-7.47966003 2.99951005 -130.02099609 4.000000
-8.19454002 4.93172979 -128.99499512 4.000000
-7.50749016 3.48919010 -129.02600098 4.000000
-8.12082005 3.95493007 -131.03700256 4.000000
-7.54066992 2.99898005 -131.50799561 4.000000
-7.21044016 2.42557001 -128.99299622 4.000000
-6.11541986 2.64351010 -124.50299835 4.000000
-40.32939911 -52.50099945 -42.30739975 4.000000
-9.63811970 5.96019983 -135.00900269 4.000000
-8.59603024 3.99879003 -136.50999451 4.000000
-9.01051998 5.02823019 -134.53300476 4.000000
-8.33213043 3.38622999 -135.48199463 4.000000
-8.45569992 4.06111002 -134.52799988 4.000000
-54.22200012 -72.10669708 -72.88420105 4.000000
-52.91450119 -72.42459869 -72.22899628 4.000000
-8.43437004 4.55195999 -133.06900024 4.000000
-7.91377020 3.02777004 -133.53300476 4.000000
-51.45890045 -72.62090302 -71.46659851 4.000000
-8.54749966 4.99424982 -131.52799988 4.000000
-51.23970032 -72.55110168 -72.50289917 4.000000
-53.66469955 -73.55490112 -74.03019714 4.000000
-53.13790131 -73.56349945 -73.01409912 4.000000
-51.92689896 -73.98519897 -74.00730133 4.000000
-51.49890137 -74.10130310 -72.97730255 4.000000
-53.48669815 -74.60449982 -74.10630035 4.000000
-51.55619812 -74.56030273 -72.02700043 4.000000
-53.69960022 -75.55539703 -73.49510193 4.000000
-53.54299927 -75.07440186 -72.02749634 4.000000
-7.90225983 4.56959009 -127.51999664 4.000000
-55.52130127 -76.57009888 -77.58149719 4.000000
-54.90930176 -76.53420258 -76.43720245 4.000000
-54.43259811 -76.53540039 -75.34590149 4.000000
-55.31660080 -78.07469940 -77.39369965 4.000000
-54.86439896 -78.05470276 -76.40499878 4.000000
-54.33700180 -78.06189728 -75.43090057 4.000000
-54.35319901 -79.03199768 -76.42870331 4.000000
-10.16129971 6.45011997 -136.00199890 4.000000
-9.25218010 5.91368008 -133.97700500 4.000000
-8.82518005 5.54755020 -132.55099487 4.000000
-7.78720999 3.42231989 -132.45599365 4.000000
-46.35309982 -59.54919815 -46.45629883 4.000000
-46.71720123 -66.06189728 -49.98059845 4.000000
-9.64161015 4.97312021 -137.50399780 4.000000
-18.15900040 -26.03319931 -50.95800018 4.000000
-7.18087006 2.44760990 -132.99600220 4.000000
-8.58228970 2.97859001 -139.02099609 4.000000
-8.65128994 2.44585991 -140.50599670 4.000000
-8.16390038 1.44265997 -138.00000000 4.000000
-7.99521017 2.49258995 -136.52400208 4.000000
-9.41018009 8.07962990 -123.62599945 4.000000
-52.50839996 -66.51490021 -63.06000137 4.000000
-8.97537994 2.85208011 -141.44000244 4.000000
-8.77550983 1.91471004 -141.97500610 4.000000
-54.01770020 -74.53700256 -71.09439850 4.000000
-55.20109940 -74.05799866 -75.96410370 4.000000
-54.48049927 -74.99459839 -75.78759766 4.000000
-9.82843971 6.86793995 -134.45100403 4.000000
-32.20479965 -38.51990128 -40.45800018 4.000000
-9.74580002 2.42272997 -146.98399353 4.000000
-9.34346962 1.37237000 -146.46099854 4.000000
-9.39255047 2.37913990 -144.92900085 4.000000
-9.42432976 6.87329006 -133.42700195 4.000000
-53.70679855 -76.05780029 -72.49050140 4.000000
-9.11056995 6.94693995 -132.01199341 4.000000
-8.81208992 5.91220999 -130.96000671 4.000000
-9.09714985 7.48063993 -115.02999878 4.000000
-8.84335995 7.88507986 -113.93699646 4.000000
-9.45256996 6.63314009 -126.50700378 4.000000
-9.63057995 6.96795988 -125.50599670 4.000000
-9.65143013 7.45139980 -124.51200104 4.000000
-8.95363998 6.14877987 -125.49800110 4.000000
-8.77490044 6.38731003 -124.46700287 4.000000
-11.13259983 6.47908020 -138.02099609 4.000000
-46.25439835 -63.56549835 -47.95899963 4.000000
-46.27909851 -64.55390167 -48.45320129 4.000000
-18.33729935 1.24629998 -72.08429718 4.000000
-46.03879929 -59.60189819 -45.05300140 4.000000
-56.67599869 -77.55909729 -78.50440216 4.000000
-56.62590027 -78.54340363 -79.03790283 4.000000
-43.22840118 -56.03620148 -42.95220184 4.000000
-9.42864037 8.49477005 -115.06900024 4.000000
-8.92370987 7.10633993 -116.03299713 4.000000
-9.16979027 8.94266987 -114.00099945 4.000000
-53.96599960 -76.61029816 -74.03330231 4.000000
-10.91800022 7.16668987 -136.57099915 4.000000
-54.20360184 -77.55780029 -74.49230194 4.000000
-36.35100174 -43.97919846 -39.43090057 4.000000
-10.02000046 8.03831959 -125.54399872 4.000000
-7.61982012 4.96611023 -123.00900269 4.000000
-32.89229965 -39.29899979 -39.77130127 4.000000
-33.88850021 -39.89039993 -39.89429855 4.000000
-56.63069916 -79.53720093 -79.53440094 4.000000
-52.42710114 -69.02909851 -66.49389648 4.000000
-52.61489868 -68.05870056 -65.99890137 4.000000
-52.62939835 -67.06279755 -65.49549866 4.000000
-52.89709854 -70.01360321 -65.53440094 4.000000
-52.36999893 -69.10279846 -64.94950104 4.000000
-53.84700012 -77.06199646 -72.95719910 4.000000
-54.02939987 -78.07170105 -73.53050232 4.000000
-53.24209976 -67.07550049 -63.98899841 4.000000
-52.57580185 -68.04149628 -64.51979828 4.000000
-54.30020142 -79.57240295 -74.95890045 4.000000
-54.09529877 -80.54830170 -74.52590179 4.000000
-46.12559891 -60.56959915 -45.52130127 4.000000
-39.56869888 -50.13479996 -40.04359818 4.000000
-40.22589874 -51.04529953 -40.48320007 4.000000
-47.12710190 -67.03549957 -52.53129959 4.000000
-55.56370163 -80.51490021 -79.05449677 4.000000
-4.69593000 -8.58432007 -74.02880096 4.000000
-53.42440033 -62.37689972 -61.06949997 4.000000
-52.96060181 -63.99980164 -61.52140045 4.000000
-52.19350052 -70.56430054 -66.49569702 4.000000
-51.80400085 -71.62719727 -66.44999695 4.000000
-53.59680176 -71.53610229 -68.03179932 4.000000
-53.92860031 -61.44670105 -60.55009842 4.000000
-34.62419891 -41.10250092 -39.52429962 4.000000
-50.67910004 -77.06690216 -69.98919678 4.000000
-51.72620010 -78.71849823 -71.29540253 4.000000
-50.75899887 -77.98470306 -71.09999847 4.000000
-51.39020157 -74.02619934 -69.85369873 4.000000
-46.03300095 -63.06990051 -47.04420090 4.000000
-47.40129852 -63.15850067 -52.86660004 4.000000
-48.52410126 -64.82319641 -55.80450058 4.000000
-49.19229889 -68.57499695 -62.48680115 4.000000
-48.58069992 -71.35269928 -64.73809814 4.000000
-8.51949978 5.51008987 -130.00399780 4.000000
-8.11555958 5.48918009 -125.00599670 4.000000
-49.19839859 -73.63600159 -67.95369720 4.000000
-48.19010162 -73.50710297 -67.53910065 4.000000
-42.08420181 -55.10789871 -42.06079865 4.000000
-47.67549896 -70.88950348 -64.11460114 4.000000
-46.64690018 -69.42019653 -61.07970047 4.000000
-52.81710052 -64.63719940 -62.47129822 4.000000
-49.24940109 -65.11900330 -57.95600128 4.000000
-53.30459976 -65.13600159 -64.47989655 4.000000
-46.66429901 -68.02989960 -57.50669861 4.000000
-46.61619949 -68.41480255 -58.55220032 4.000000
-53.96950150 -63.35020065 -63.09379959 4.000000
-53.68719864 -64.07779694 -63.98970032 4.000000
-53.92649841 -60.30469894 -59.64379883 4.000000
-51.77069855 -67.08370209 -63.98350143 4.000000
-54.92850113 -81.44999695 -78.58779907 4.000000
-54.10530090 -82.03610229 -78.02259827 4.000000
-55.06710052 -81.99430084 -79.54319763 4.000000
-54.12300110 -83.03170013 -78.51789856 4.000000
-54.47000122 -81.04830170 -76.55529785 4.000000
-54.19419861 -81.56140137 -75.49299622 4.000000
-45.69900131 -68.59549713 -57.99399948 4.000000
-47.11569977 -69.86139679 -62.66889954 4.000000
-49.67440033 -77.31659698 -71.74700165 4.000000
-1.34048998 0.23379400 -119.96399689 4.000000
-2.06803989 1.11579001 -119.01300049 4.000000
-53.01390076 -81.01339722 -73.09929657 4.000000
-6.52326012 3.04853010 -118.99400330 4.000000
-1.66856003 0.45441699 -123.99500275 4.000000
-45.68709946 -69.06880188 -58.99499893 4.000000
-45.57519913 -69.36859894 -60.58700180 4.000000
-47.30810165 -66.16020203 -54.94499969 4.000000
-46.67739868 -67.05860138 -54.99769974 4.000000
-53.11700058 -63.53910065 -62.51010132 4.000000
-53.71549988 -81.56430054 -73.98370361 4.000000
-50.26580048 -61.61959839 -55.92549896 4.000000
-51.47869873 -69.54599762 -66.51429749 4.000000
-54.42259979 -82.89810181 -79.60919952 4.000000
-47.68249893 -72.57849884 -66.48470306 4.000000
-50.30500031 -71.14910126 -65.91069794 4.000000
-53.22180176 -64.58100128 -65.50620270 4.000000
-51.99399948 -67.53199768 -67.02809906 4.000000
-51.92610168 -68.49320221 -67.50720215 4.000000
-47.19329834 -71.88140106 -65.60350037 4.000000
-50.49079895 -74.91490173 -70.17189789 4.000000
-49.72570038 -61.07279968 -54.94440079 4.000000
-54.63169861 -65.04000092 -66.52210236 4.000000
-52.09980011 -66.54699707 -66.49900055 4.000000
-54.60919952 -66.49160004 -68.03970337 4.000000
-54.01670074 -67.35019684 -68.62550354 4.000000
-52.21409988 -67.06400299 -67.99710083 4.000000
-52.15790176 -68.05650330 -68.49459839 4.000000
-51.61470032 -69.05149841 -68.48570251 4.000000
-51.42340088 -70.55039978 -67.98079681 4.000000
-46.12620163 -70.40730286 -63.07830048 4.000000
-49.68360138 -74.90930176 -69.17520142 4.000000
-48.68349838 -75.04509735 -69.51339722 4.000000
-49.18600082 -76.60030365 -70.94219971 4.000000
-46.14849854 -70.88790131 -64.09439850 4.000000
-51.31880188 -65.66459656 -61.39319992 4.000000
-50.76959991 -62.12599945 -56.92620087 4.000000
-52.09000015 -65.50060272 -63.50799942 4.000000
-51.35900116 -60.24700165 -55.83240128 4.000000
-49.26430130 -69.18370056 -63.38090134 4.000000
-46.61669922 -67.49960327 -56.51480103 4.000000
-46.15349960 -68.54129791 -56.49549866 4.000000
-53.36420059 -63.65470123 -65.02580261 4.000000
-51.73949814 -65.60489655 -62.48289871 4.000000
-51.80860138 -60.63650131 -56.88389969 4.000000
-50.34669876 -70.19519806 -64.85160065 4.000000
-50.41650009 -64.24340057 -58.33580017 4.000000
-5.66112995 -10.04459953 -72.96369934 4.000000
-8.59047031 5.53348017 -126.51000214 4.000000
-10.11460018 7.49892998 -127.98100281 4.000000
-9.52083015 8.02696991 -116.02899933 4.000000
-6.92547989 3.99673009 -118.49900055 4.000000
-11.66240025 5.96851015 -139.50900269 4.000000
-8.52182961 5.53617001 -127.98799896 4.000000
-8.72060013 5.92070007 -128.99800110 4.000000
-54.48239899 -60.34840012 -60.64300156 4.000000
-51.31269836 -64.64839935 -60.43889999 4.000000
-50.24300003 -63.12149811 -57.45859909 4.000000
-51.87630081 -62.70800018 -58.88639832 4.000000
-55.19359970 -58.56859970 -58.99480057 4.000000
-52.19969940 -66.06539917 -65.49710083 4.000000
-51.64680099 -68.55049896 -69.48930359 4.000000
-51.43679810 -70.05670166 -68.95469666 4.000000
-51.45809937 -71.09510040 -69.46330261 4.000000
-51.20149994 -71.05940247 -70.49919891 4.000000
-51.58319855 -72.04519653 -70.47059631 4.000000
-51.88700104 -67.09809875 -69.37709808 4.000000
-49.33020020 -65.68879700 -58.90650177 4.000000
-51.04380035 -70.06800079 -70.97530365 4.000000
-50.97900009 -71.56680298 -71.92320251 4.000000
-51.46139908 -75.16439819 -74.01210022 4.000000
-6.58310986 3.01068997 -117.50700378 4.000000
-10.35939980 7.36092997 -135.44799805 4.000000
-12.13990021 4.25705004 -149.54899597 4.000000
-3.66147995 2.71847010 -143.51800537 4.000000
-1.74962997 3.04538012 -135.45599365 4.000000
-2.13613009 2.82661009 -140.03300476 4.000000
-2.70409012 2.67208004 -140.93600464 4.000000
-2.18207002 2.93382001 -137.49699402 4.000000
-4.30768013 1.77708006 -149.06300354 4.000000
-3.66266990 1.50246000 -147.99699402 4.000000
-3.71480989 2.63649011 -141.44299316 4.000000
-5.73290014 2.06988001 -141.49800110 4.000000
-3.74445009 1.84075999 -150.04899597 4.000000
-2.67150998 2.83504009 -142.01100159 4.000000
-0.72531700 -0.11852500 -124.00599670 4.000000
-1.16987002 -0.04947500 -124.99600220 4.000000
-1.43692994 0.21206100 -126.02899933 4.000000
-1.70936000 0.40772000 -122.50399780 4.000000
-4.40703011 -3.34594011 -87.47160339 4.000000
-3.47654009 -5.00088978 -89.51750183 4.000000
-3.80596995 -4.11051989 -88.99349976 4.000000
-3.93435001 -3.96339989 -90.49449921 4.000000
0.34842399 0.10537000 -109.93800354 4.000000
-3.43874002 -5.44930983 -95.47750092 4.000000
-3.58458996 -4.99417019 -94.49230194 4.000000
-3.22770000 -5.08822012 -87.99369812 4.000000
-3.13469005 -5.02844000 -86.49749756 4.000000
-3.35581994 -4.65576982 -85.51280212 4.000000
-3.17849994 -5.05195999 -80.99510193 4.000000
-2.67383003 -5.04679012 -82.49079895 4.000000
-3.31586003 1.70652997 -120.47899628 4.000000
-52.24000168 -78.54840088 -75.98729706 4.000000
-51.78189850 -76.56289673 -75.49490356 4.000000
-52.53020096 -77.58580017 -76.53990173 4.000000
-52.04629898 -76.59049988 -76.54119873 4.000000
-52.66550064 -78.06230164 -77.50050354 4.000000
-52.18349838 -77.06099701 -77.49710083 4.000000
-51.19710159 -72.56320190 -68.49549866 4.000000
-50.82730103 -73.65769958 -68.95249939 4.000000
-51.53239822 -73.01100159 -69.52330017 4.000000
-51.25239944 -69.56310272 -70.00509644 4.000000
-51.11249924 -71.55819702 -67.50440216 4.000000
-51.64649963 -77.06680298 -73.50080109 4.000000
-51.63600159 -76.08300018 -72.50099945 4.000000
-51.65340042 -75.06590271 -75.49629974 4.000000
-51.49470139 -74.08789825 -74.98930359 4.000000
-52.41019821 -81.99130249 -79.53109741 4.000000
-52.71139908 -81.07379913 -78.99009705 4.000000
-50.72850037 -70.56559753 -72.51210022 4.000000
-8.06031990 -12.52359962 -71.25270081 4.000000
-3.28236008 -5.60693979 -90.99559784 4.000000
-3.73414993 -4.57155991 -91.49559784 4.000000
-52.40269852 -62.69350052 -59.91439819 4.000000
-3.80171990 -4.63676977 -93.49990082 4.000000
-1.08454001 0.58778602 -118.50800323 4.000000
-5.68505001 2.43253994 -123.49700165 4.000000
-52.28770065 -81.01560211 -74.96170044 4.000000
-51.83869934 -80.04540253 -74.45259857 4.000000
-52.46900177 -81.10330200 -76.02999878 4.000000
-52.17020035 -80.06210327 -75.49960327 4.000000
-50.65319824 -68.53450012 -64.01999664 4.000000
-3.67537999 -5.05815983 -92.49680328 4.000000
-3.76741004 -4.12592983 -86.49810028 4.000000
-53.27159882 -80.63410187 -79.96690369 4.000000
-53.03430176 -80.00659943 -78.56459808 4.000000
-53.46889877 -79.54789734 -80.54039764 4.000000
-53.27040100 -79.09300232 -79.48419952 4.000000
-53.10300064 -77.58409882 -79.05680084 4.000000
-52.55020142 -76.08350372 -78.59349823 4.000000
-51.90039825 -75.62480164 -77.55930328 4.000000
-51.71210098 -74.56210327 -76.49320221 4.000000
-52.55039978 -81.56890106 -77.50399780 4.000000
-52.46020126 -80.48359680 -77.54229736 4.000000
-16.11249924 -23.98229980 -54.42440033 4.000000
-51.76119995 -64.61039734 -61.45309830 4.000000
-54.22380066 -62.08560181 -62.48540115 4.000000
-52.33769989 -79.57779694 -76.47029877 4.000000
-18.16150093 -27.04520035 -50.45769882 4.000000
-17.15620041 -26.01799965 -51.44680023 4.000000
-14.15190029 5.06005001 -94.96579742 4.000000
-51.30339813 -73.59100342 -70.98670197 4.000000
-1.14110005 -0.01902400 -121.00199890 4.000000
-51.03210068 -72.03890228 -73.48400116 4.000000
-52.15670013 -66.05750275 -67.49700165 4.000000
-50.88800049 -67.73950195 -63.31299973 4.000000
-49.87699890 -62.70700073 -56.34840012 4.000000
-52.45380020 -65.14630127 -66.01309967 4.000000
-3.56857991 -4.51789999 -97.47370148 4.000000
-9.60439968 8.99956036 -119.95899963 4.000000
-51.39810181 -63.73740005 -59.38069916 4.000000
-50.22349930 -67.60590363 -62.45790100 4.000000
-50.23699951 -66.61920166 -61.45090103 4.000000
-50.84629822 -69.56009674 -72.02850342 4.000000
-0.68288499 -2.56000996 -104.99700165 4.000000
-51.09379959 -75.53639984 -71.53630066 4.000000
-52.60689926 -79.05879974 -78.01580048 4.000000
-52.29439926 -82.57759857 -77.99710083 4.000000
-0.18337300 1.43991005 -113.49600220 4.000000
-0.16004400 -1.52249002 -106.97399902 4.000000
-13.04909992 -18.95590019 -64.85369873 4.000000
-2.55715990 -5.46367979 -85.47350311 4.000000
-47.18270111 -73.06500244 -67.49420166 4.000000
-49.23619843 -75.73780060 -70.28160095 4.000000
-47.68339920 -75.55359650 -69.99949646 4.000000
-47.13970184 -73.73410034 -68.38569641 4.000000
-48.18159866 -74.12339783 -68.45559692 4.000000
-50.32929993 -72.71820068 -67.87850189 4.000000
-50.81119919 -76.66560364 -71.88670349 4.000000
-26.29179955 -11.01159954 -52.07389832 4.000000
-3.73189998 -7.63827991 -75.56369781 4.000000
-19.62840080 -28.98900032 -48.35499954 4.000000
-14.01720047 -21.38129997 -60.88959885 4.000000
-3.19641995 2.52710009 -145.52900696 4.000000
-21.68070030 -31.55850029 -46.49209976 4.000000
-13.56610012 -19.98539925 -63.91770172 4.000000
-14.13329983 6.06752014 -97.94010162 4.000000
-15.19130039 2.13762999 -85.44380188 4.000000
-51.99700165 -65.03589630 -66.99179840 4.000000
-54.02059937 -81.82319641 -83.16719818 4.000000
-53.02059937 -82.37740326 -83.07679749 4.000000
-52.13389969 -83.52339935 -83.01270294 4.000000
-55.01089859 -60.38520050 -61.59189987 4.000000
-12.65130043 7.50614023 -101.96199799 4.000000
-51.73559952 -68.09539795 -70.49929810 4.000000
-53.78499985 -59.68889999 -58.43190002 4.000000
-55.36280060 -59.25690079 -59.90090179 4.000000
-56.23960114 -57.75049973 -56.39070129 4.000000
-54.68050003 -82.52739716 -84.03040314 4.000000
-54.18489838 -80.06230164 -81.49479675 4.000000
-52.90449905 -60.26259995 -57.85210037 4.000000
-52.88619995 -61.19680023 -58.92819977 4.000000
-53.17559814 -81.05760193 -80.99829865 4.000000
-52.86059952 -61.65919876 -59.88700104 4.000000
-0.98941600 -0.40229300 -121.97899628 4.000000
-52.42900085 -64.61849976 -68.00630188 4.000000
-51.53089905 -78.52330017 -73.55049896 4.000000
-51.84360123 -78.06390381 -74.45580292 4.000000
-51.97710037 -79.05149841 -75.03839874 4.000000
-52.68510056 -82.56130219 -80.49659729 4.000000
-53.04970169 -81.50330353 -82.03040314 4.000000
-52.70029831 -82.57129669 -81.99379730 4.000000
-51.03290176 -79.30300140 -74.21630096 4.000000
-50.62490082 -77.99839783 -73.03109741 4.000000
-50.08890152 -79.39620209 -73.65360260 4.000000
-53.76430130 -78.58350372 -80.97440338 4.000000
-27.59149933 -11.61499977 -50.41400146 4.000000
-45.27209854 -70.20529938 -61.90940094 4.000000
-46.17029953 -71.38410187 -65.08580017 4.000000
-46.16759872 -72.19049835 -66.43830109 4.000000
-55.65039825 -59.51100159 -61.02890015 4.000000
-49.68489838 -78.06479645 -72.49310303 4.000000
-53.36859894 -76.56659698 -79.35279846 4.000000
19.82229996 40.42359924 -93.97299957 5.000000
20.28319931 39.52690125 -94.64859772 5.000000
21.32279968 39.42530060 -94.97019958 5.000000
21.24920082 41.55709839 -93.68060303 5.000000
22.31459999 40.94169998 -94.50199890 5.000000
22.72369957 40.03599930 -95.18299866 5.000000
21.86520004 42.36180115 -93.38839722 5.000000
23.34009933 40.89789963 -94.92179871 5.000000
13.81840038 38.44250107 -95.50150299 5.000000
14.33279991 37.49300003 -96.06529999 5.000000
14.88420010 36.62419891 -96.75019836 5.000000
14.83230019 38.53590012 -95.11740112 5.000000
15.36229992 37.63669968 -95.76219940 5.000000
16.28440094 36.78469849 -96.27600098 5.000000
16.30750084 38.76760101 -94.77110291 5.000000
17.31480026 37.30730057 -95.80870056 5.000000
16.80909920 39.57369995 -94.17610168 5.000000
17.31660080 38.44070053 -94.99939728 5.000000
22.77939987 41.98799896 -94.07520294 5.000000
14.80350018 39.38819885 -94.43409729 5.000000
17.85149956 40.26430130 -93.76360321 5.000000
18.32620049 39.38669968 -94.41750336 5.000000
18.80699921 38.48680115 -95.07689667 5.000000
19.38489914 41.27470016 -93.27359772 5.000000
20.85689926 40.35269928 -94.34140015 5.000000
9.29611015 42.60530090 -90.11260223 5.000000
9.84183025 41.81620026 -91.39769745 5.000000
10.29510021 41.00159836 -92.54879761 5.000000
10.29590034 42.50479889 -90.54750061 5.000000
10.88749981 41.79410172 -91.87809753 5.000000
11.76679993 43.05039978 -90.58110046 5.000000
12.81379986 42.44729996 -92.00499725 5.000000
12.72579956 43.12919998 -91.15080261 5.000000
13.33629990 43.88639832 -90.45339966 5.000000
13.80319977 42.76660156 -91.81430054 5.000000
14.32330036 43.49860001 -91.06109619 5.000000
14.89260006 42.61719894 -91.72699738 5.000000
14.32199955 44.24670029 -90.30680084 5.000000
-0.03215600 39.09780121 -100.12599945 5.000000
0.82805002 37.95090103 -100.51100159 5.000000
1.72650003 37.33819962 -100.37999725 5.000000
0.54508102 39.22209930 -99.20120239 5.000000
1.48503995 38.17929840 -99.70510101 5.000000
1.40022004 39.08399963 -98.58809662 5.000000
15.37020016 43.61800003 -90.72879791 5.000000
2.41728997 38.07249832 -99.11450195 5.000000
1.38045001 39.59180069 -97.57140350 5.000000
2.51367998 38.71810150 -98.22789764 5.000000
17.29150009 44.08110046 -90.15609741 5.000000
2.25791001 39.80830002 -96.42199707 5.000000
17.32469940 44.87060165 -89.41600037 5.000000
3.33662009 38.97669983 -97.02410126 5.000000
17.31760025 45.92110062 -88.47480011 5.000000
2.28572989 40.36470032 -95.45459747 5.000000
3.38443995 39.58309937 -96.08820343 5.000000
4.41155005 38.64270020 -96.65399933 5.000000
3.33722997 40.49990082 -94.53919983 5.000000
23.90299988 48.17990112 -87.79260254 5.000000
4.30306005 39.90579987 -94.97339630 5.000000
4.89918995 39.17539978 -95.67240143 5.000000
24.41589928 47.24580002 -89.36779785 5.000000
4.33548021 40.49829865 -94.03399658 5.000000
8.81577969 41.95690155 -91.00910187 5.000000
18.37929916 44.75870132 -89.80249786 5.000000
18.30430031 45.47999954 -89.04170227 5.000000
9.29720020 41.14519882 -92.16459656 5.000000
25.23830032 48.65409851 -87.64959717 5.000000
18.85219955 46.30810165 -88.35729980 5.000000
26.36280060 48.19589996 -88.82810211 5.000000
19.32979965 45.39649963 -89.45279694 5.000000
26.32889938 48.80789948 -87.90319824 5.000000
19.89399910 46.21419907 -88.77780151 5.000000
20.26720047 45.07239914 -90.12950134 5.000000
25.84429932 49.31169891 -86.90080261 5.000000
20.30159950 46.99459839 -88.05300140 5.000000
27.82150078 48.37969971 -88.96299744 5.000000
20.83180046 45.89329910 -89.45439911 5.000000
21.25230026 46.65969849 -88.69879913 5.000000
21.75589943 45.60129929 -90.14649963 5.000000
21.81760025 47.43479919 -87.99310303 5.000000
22.34239960 46.36610031 -89.43329620 5.000000
22.76000023 47.13850021 -88.66860199 5.000000
23.33379936 46.39739990 -89.96360016 5.000000
21.81310081 53.91590118 -81.46700287 5.000000
22.33040047 53.05839920 -82.14179993 5.000000
22.27529907 54.75040054 -80.72660065 5.000000
23.33410072 53.53390121 -81.61270142 5.000000
23.79619980 52.75009918 -82.29599762 5.000000
23.29859924 54.35449982 -80.88430023 5.000000
24.32290077 53.96350098 -81.02670288 5.000000
24.81320000 52.91460037 -81.97209930 5.000000
23.86479950 55.07720184 -80.19100189 5.000000
8.23583984 47.56750107 -79.56030273 5.000000
8.44836044 48.21340179 -78.35720062 5.000000
25.34989929 53.59970093 -81.16699982 5.000000
24.84429932 55.51100159 -79.59559631 5.000000
25.29400063 54.35169983 -80.39179993 5.000000
9.26356983 48.49959946 -79.03340149 5.000000
26.32749939 53.99869919 -80.55899811 5.000000
8.76222992 47.53229904 -80.54080200 5.000000
25.87109947 55.61119843 -79.21399689 5.000000
10.00230026 49.25479889 -78.88760376 5.000000
26.76059914 54.72060013 -79.74420166 5.000000
26.83600044 55.99100113 -78.56320190 5.000000
10.82549953 48.42979813 -81.49089813 5.000000
10.75450039 49.02349854 -80.55789948 5.000000
27.81879997 54.61719894 -79.65280151 5.000000
10.91170025 49.84049988 -79.42440033 5.000000
27.79820061 55.35340118 -78.90209961 5.000000
27.78840065 56.38499832 -77.92710114 5.000000
13.87940025 49.34840012 -83.42539978 5.000000
13.79020023 49.96960068 -82.52089691 5.000000
13.73369980 50.54069901 -81.57879639 5.000000
28.82869911 54.99649811 -79.05580139 5.000000
28.75329971 55.73659897 -78.27600098 5.000000
14.65200043 51.16170120 -81.67980194 5.000000
14.96230030 49.73270035 -83.83280182 5.000000
14.86100006 50.37300110 -82.94190216 5.000000
29.88310051 54.59859848 -79.14070129 5.000000
15.67479992 51.14379883 -82.66960144 5.000000
16.38839912 50.27119827 -84.32859802 5.000000
16.32390022 50.92570114 -83.48480225 5.000000
16.78720093 51.98789978 -82.54180145 5.000000
17.35490036 50.72060013 -84.25599670 5.000000
17.80139923 51.50889969 -83.57579803 5.000000
17.85230064 52.28030014 -82.81520081 5.000000
18.80480003 50.76710129 -84.27950287 5.000000
18.81270027 51.85359955 -83.39289856 5.000000
19.80990028 51.26890182 -83.80079651 5.000000
18.82010078 52.90129852 -82.44550323 5.000000
19.80949974 52.34130096 -82.86940002 5.000000
20.81180000 51.49929810 -83.56539917 5.000000
19.82029915 53.46260071 -82.03029633 5.000000
20.81809998 52.56010056 -82.64849854 5.000000
21.81069946 52.04399872 -83.11769867 5.000000
17.82060051 55.93399811 -78.99160004 5.000000
17.67700005 56.59949875 -78.17259979 5.000000
17.82609940 57.42829895 -77.48480225 5.000000
18.50149918 58.21269989 -77.25150299 5.000000
18.87849998 56.32910156 -79.36270142 5.000000
19.40089989 57.28850174 -78.82050323 5.000000
19.69070053 58.12089920 -78.19360352 5.000000
20.32169914 56.90370178 -79.44809723 5.000000
20.82609940 57.81029892 -78.81800079 5.000000
20.23500061 59.06689835 -77.64179993 5.000000
21.84639931 57.05459976 -79.17819977 5.000000
21.33200073 58.60609818 -78.24659729 5.000000
21.29649925 59.54859924 -77.65219879 5.000000
22.31789970 57.94340134 -78.50440216 5.000000
22.30690002 58.90579987 -77.93750000 5.000000
22.30579948 59.87409973 -77.38829803 5.000000
23.36590004 58.07970047 -78.24890137 5.000000
23.35239983 59.04660034 -77.68890381 5.000000
23.82900047 59.97069931 -77.05740356 5.000000
24.80640030 57.91849899 -77.96199799 5.000000
24.84300041 59.48699951 -77.08930206 5.000000
2.31303000 42.92179871 -89.48770142 5.000000
3.79799008 43.11259842 -89.08090210 5.000000
25.31439972 60.43479919 -76.48889923 5.000000
25.84059906 58.97290039 -77.06320190 5.000000
2.82419991 42.39950180 -90.99359894 5.000000
3.81704998 42.44039917 -90.49780273 5.000000
26.36479950 60.50519943 -76.12629700 5.000000
4.82484007 42.56309891 -90.07219696 5.000000
26.36370087 61.49959946 -75.63590240 5.000000
26.87969971 59.01029968 -76.63230133 5.000000
27.30170059 59.92340088 -75.96469879 5.000000
3.80969000 41.90779877 -91.47820282 5.000000
27.32010078 60.94179916 -75.50370026 5.000000
4.82033014 42.01359940 -91.04540253 5.000000
28.30620003 58.92589951 -75.97270203 5.000000
5.81327009 42.31679916 -90.42230225 5.000000
28.29339981 59.91699982 -75.45099640 5.000000
4.30291986 41.36119843 -92.45709991 5.000000
27.76370049 61.88520050 -74.87159729 5.000000
5.31591988 41.42359924 -91.98699951 5.000000
28.31920052 60.94110107 -75.00240326 5.000000
6.30279016 41.75289917 -91.37500000 5.000000
29.23200035 59.34519958 -75.31659698 5.000000
28.77099991 61.90169907 -74.39129639 5.000000
29.40640068 60.50839996 -74.66510010 5.000000
5.37027979 40.69060135 -93.17630005 5.000000
6.32005978 40.97629929 -92.52449799 5.000000
30.39279938 59.49760056 -74.62580109 5.000000
29.85650063 61.46879959 -74.09069824 5.000000
29.91659927 62.50210190 -73.73030090 5.000000
5.83035994 39.98149872 -94.02870178 5.000000
