14.38899994 -27.17270088 -21.25090027 5.000000
9.49067020 -42.21379852 -1.70104003 5.000000
15.07919979 -26.26659966 -20.74460030 5.000000
15.67759991 -25.34040070 -20.21089935 5.000000
9.28512955 -41.12179947 -3.62334991 5.000000
16.25289917 -25.91150093 -24.69099998 5.000000
10.06239986 -40.25640106 -2.74020004 5.000000
16.03700066 -25.73240089 -23.25349998 5.000000
8.88185024 -40.61249924 -5.14532995 5.000000
17.46030045 -25.14249992 -25.28440094 5.000000
17.10670090 -25.80850029 -26.72620010 5.000000
9.71030045 -39.85210037 -4.28607988 5.000000
18.52739906 -24.69700050 -26.26409912 5.000000
17.45569992 -26.11009979 -28.29549980 5.000000
18.59169960 -25.30769920 -27.72050095 5.000000
9.39039993 -39.63140106 -5.65684986 5.000000
10.17479992 -38.81219864 -4.77131987 5.000000
18.65449905 -25.93750000 -29.17119980 5.000000
20.09009933 -25.37220001 -28.68610001 5.000000
23.57570076 -29.19339943 -37.74750137 5.000000
9.62495995 -38.79130173 -6.76149988 5.000000
10.47080040 -37.71360016 -5.21445990 5.000000
24.57040024 -29.10919952 -36.76290131 5.000000
25.55489922 -29.14609909 -37.74060059 5.000000
23.57390022 -29.40239906 -39.74069977 5.000000
10.10480022 -37.28189850 -7.75365019 5.000000
10.63860035 -36.78499985 -6.76219988 5.000000
25.04529953 -29.16559982 -39.73479843 5.000000
26.04150009 -28.70310020 -40.23089981 5.000000
11.13099957 -35.78120041 -7.25509024 5.000000
9.67801952 -37.32849884 -9.26317024 5.000000
10.63780022 -36.29449844 -8.25485992 5.000000
25.12350082 -28.85720062 -41.78079987 5.000000
10.16889954 -36.31460190 -10.26060009 5.000000
10.85779953 -35.17539978 -9.21584034 5.000000
10.94200039 -34.19810104 -11.72920036 5.000000
26.39189911 -28.04210091 -41.62860107 5.000000
11.56149960 -33.25559998 -10.74209976 5.000000
25.10639954 -28.30710030 -43.26440048 5.000000
11.41450024 -33.15409851 -12.22319984 5.000000
26.13520050 -27.31679916 -43.27870178 5.000000
12.11900043 -32.29389954 -11.24870014 5.000000
11.86540031 -32.57360077 -13.20720005 5.000000
12.37349987 -31.60129929 -12.23260021 5.000000
12.34469986 -32.06230164 -14.25609970 5.000000
12.81000042 -30.68969917 -13.80510044 5.000000
12.42930031 -32.09510040 -15.74209976 5.000000
27.43390083 -27.53339958 -41.11190033 5.000000
11.36610031 -34.21229935 -8.21296978 5.000000
28.57950020 -27.27680016 -40.25189972 5.000000
11.85239983 -33.17150116 -7.22508001 5.000000
7.54337978 -48.23799896 3.28105998 5.000000
11.53149986 -33.24369812 -9.23843956 5.000000
8.52145958 -48.22890091 4.29233980 5.000000
12.18000031 -32.31930161 -8.24759960 5.000000
27.19610023 -26.92530060 -42.35469818 5.000000
28.69389915 -26.46249962 -41.37459946 5.000000
9.33481026 -47.59949875 4.93884993 5.000000
8.85921955 -47.11320114 3.89115000 5.000000
12.10669994 -32.28269958 -9.74536037 5.000000
12.57499981 -31.26140022 -8.74326992 5.000000
9.76953983 -46.52239990 4.48733997 5.000000
-1.98714006 -33.35699844 -28.80120087 5.000000
9.23943996 -45.88629913 3.14715004 5.000000
12.66339970 -31.29210091 -10.25020027 5.000000
10.04800034 -44.74150085 2.77208996 5.000000
12.68260002 -29.76329994 -9.73021984 5.000000
12.86550045 -30.25469971 -11.25349998 5.000000
10.41660023 -43.18030167 1.32826996 5.000000
12.95969963 -29.23170090 -12.24810028 5.000000
12.89490032 -28.71879959 -10.77260017 5.000000
9.95975018 -42.70709991 -0.18834201 5.000000
13.29109955 -27.29170036 -11.21549988 5.000000
10.60229969 -41.77310181 0.24146400 5.000000
13.40890026 -27.71800041 -13.25829983 5.000000
10.15149975 -41.30149841 -1.27753997 5.000000
13.65289974 -26.28240013 -12.22340012 5.000000
13.78240013 -26.67690086 -13.78709984 5.000000
10.81869984 -39.67829895 -1.16346002 5.000000
14.13599968 -25.27090073 -13.23169994 5.000000
13.96910000 -26.72030067 -15.25800037 5.000000
14.37740040 -25.66399956 -14.78979969 5.000000
10.40590000 -39.19070053 -3.18537998 5.000000
10.92640018 -38.70209885 -2.20885992 5.000000
14.37749958 -26.16049957 -16.29190063 5.000000
14.82779980 -24.38220024 -14.68060017 5.000000
10.92630005 -37.69110107 -3.69447994 5.000000
14.95549965 -24.69210052 -16.28689957 5.000000
11.02929974 -36.74269867 -4.73439980 5.000000
11.42119980 -36.21519852 -3.72871995 5.000000
15.61200047 -24.29260063 -17.22879982 5.000000
11.40019989 -35.70790100 -5.23465014 5.000000
11.52190018 -34.25249863 -6.73440981 5.000000
16.16819954 -23.84359932 -18.20929909 5.000000
16.95070076 -23.13450050 -18.78779984 5.000000
16.27319908 -24.39660072 -19.68269920 5.000000
16.54150009 -24.73819923 -21.25349998 5.000000
17.12050056 -23.80209923 -20.72220039 5.000000
23.56859970 -28.76869965 -35.74089813 5.000000
25.06839943 -28.71450043 -35.25669861 5.000000
26.57830048 -28.98060036 -35.73680115 5.000000
27.11269951 -28.89819908 -37.26959991 5.000000
26.58839989 -28.81959915 -38.75379944 5.000000
28.03479958 -28.17250061 -38.70500183 5.000000
27.07060051 -28.26099968 -39.74349976 5.000000
8.90657997 -48.66379929 5.36988020 5.000000
9.94262981 -48.19089890 6.33698988 5.000000
29.13660049 -27.84819984 -38.28239822 5.000000
12.82940006 -27.78879929 -7.68641996 5.000000
12.72999954 -27.23950005 -6.21417999 5.000000
10.89309978 -47.14640045 6.87212992 5.000000
29.40859985 -27.14520073 -39.21849823 5.000000
10.27070045 -46.88109970 5.61765003 5.000000
11.10200024 -45.78160095 5.73579979 5.000000
13.10990047 -26.76269913 -8.73787022 5.000000
12.92080021 -25.73430061 -7.28074980 5.000000
10.73910046 -45.37559891 4.65600014 5.000000
13.19390011 -24.27869987 -7.21216011 5.000000
11.40429974 -44.18640137 4.34755993 5.000000
13.26420021 -25.28210068 -8.69890022 5.000000
11.06400013 -43.75690079 3.25999999 5.000000
15.10879993 -23.28409958 -13.72929955 5.000000
13.47949982 -23.74010086 -8.26753998 5.000000
15.84519958 -22.06609917 -13.35229969 5.000000
11.04080009 -42.74700165 2.27024007 5.000000
13.58409977 -25.26309967 -10.24040031 5.000000
13.91870022 -23.72400093 -9.78820992 5.000000
15.57579994 -23.26390076 -15.24069977 5.000000
11.65330029 -42.29449844 3.21141005 5.000000
16.13339996 -22.31990051 -14.70880032 5.000000
16.74990082 -21.44470024 -14.14820004 5.000000
14.03919983 -24.25110054 -11.25170040 5.000000
14.32129955 -23.15819931 -10.84049988 5.000000
14.43480015 -22.18569946 -9.79986000 5.000000
16.65679932 -22.83060074 -17.20100021 5.000000
11.18509960 -41.30170059 1.21358001 5.000000
11.68360043 -40.79570007 2.21357989 5.000000
17.59670067 -21.78980064 -16.72839928 5.000000
15.00100040 -22.21890068 -11.26910019 5.000000
14.48019981 -23.72279930 -12.26799965 5.000000
17.66080093 -22.36639977 -18.19499969 5.000000
18.66049957 -21.37339973 -17.69090080 5.000000
11.18169975 -40.29869843 0.21289399 5.000000
11.62530041 -39.77590179 1.23704004 5.000000
17.96719933 -22.62179947 -19.79380035 5.000000
19.03849983 -21.71159935 -19.26399994 5.000000
11.51790047 -38.74449921 -0.22673801 5.000000
11.88879967 -38.21810150 0.80655301 5.000000
18.09309959 -23.28490067 -21.73329926 5.000000
18.80570030 -22.47330093 -21.15410042 5.000000
20.00200081 -21.51020050 -20.77969933 5.000000
28.08880043 -28.85729980 -36.25970078 5.000000
11.93579960 -37.22069931 -0.21848699 5.000000
28.62490082 -28.40640068 -37.29069901 5.000000
11.39929962 -37.67819977 -1.69664001 5.000000
12.66469955 -21.77820015 -4.21918011 5.000000
13.13889980 -20.27890015 -4.21983004 5.000000
12.19099998 -41.29090118 3.70549989 5.000000
13.45969963 -19.20219994 -3.78783011 5.000000
12.70800018 -40.78850174 4.70637989 5.000000
13.22099972 -21.78450012 -5.68795013 5.000000
13.70829964 -19.82169914 -5.17381001 5.000000
10.40569973 -48.68659973 7.35583019 5.000000
11.24740028 -48.83610153 8.62549973 5.000000
13.71800041 -21.31349945 -6.69031000 5.000000
11.93280029 -47.69699860 8.85976028 5.000000
14.36040020 -20.14539909 -6.84631014 5.000000
14.77540016 -18.89430046 -6.11642981 5.000000
15.44480038 -21.17600060 -10.80529976 5.000000
15.94779968 -20.17250061 -10.31540012 5.000000
16.45400047 -19.15929985 -9.81295967 5.000000
11.85130024 -46.63150024 7.89567995 5.000000
16.41329956 -20.60840034 -11.83720016 5.000000
16.97100067 -19.66419983 -11.30599976 5.000000
18.00469971 -19.18079948 -12.29080009 5.000000
17.22970009 -20.41729927 -13.14410019 5.000000
11.88889980 -45.64519882 6.85895014 5.000000
19.66609955 -20.90710068 -18.17690086 5.000000
8.55010033 -33.17810059 -41.23939896 5.000000
20.71269989 -20.01440048 -17.64399910 5.000000
10.09939957 -32.95729828 -40.75630188 5.000000
11.90740013 -44.66790009 5.85186005 5.000000
9.55282021 -33.14469910 -42.24789810 5.000000
20.51469994 -20.67239952 -19.27860069 5.000000
12.69400024 -43.80279922 6.69552994 5.000000
10.05679989 -33.07419968 -43.74280167 5.000000
12.00070000 -43.23619843 4.78905010 5.000000
12.58510017 -42.76440048 5.74864006 5.000000
14.31760025 -18.13839912 -4.38383007 5.000000
14.62880039 -16.78919983 -3.70862007 5.000000
15.35690022 -15.45559978 -3.54496002 5.000000
15.00459957 -17.72319984 -5.28218985 5.000000
15.84189987 -16.57250023 -5.42133999 5.000000
16.27479935 -18.48719978 -8.43196964 5.000000
16.84989929 -17.50839996 -7.91229010 5.000000
17.49360085 -16.63520050 -7.31669998 5.000000
17.90399933 -17.02669907 -8.40379047 5.000000
17.43289948 -18.58090019 -10.35849953 5.000000
18.56780052 -17.74970055 -10.24849987 5.000000
19.07729912 -18.27420044 -11.73649979 5.000000
19.99880028 -17.61190033 -11.32289982 5.000000
18.73360062 -19.47450066 -13.62300014 5.000000
19.67790031 -18.52960014 -13.12930012 5.000000
20.64789963 -17.97500038 -12.66969967 5.000000
20.06270027 -18.74570084 -14.24950027 5.000000
21.12730026 -19.33720016 -16.71349907 5.000000
21.95240021 -18.52499962 -16.32399940 5.000000
23.03560066 -18.19770050 -16.75499916 5.000000
21.71109962 -19.45730019 -18.17519951 5.000000
22.11420059 -19.82060051 -19.71500015 5.000000
22.68560028 -18.95249939 -18.66650009 5.000000
12.65340042 -31.82600021 -39.24390030 5.000000
-2.72993994 -27.52610016 -58.05020142 5.000000
13.36320019 -13.94159985 0.94761401 5.000000
22.51919937 -18.13260078 -15.26389980 5.000000
14.17940044 -12.80020046 0.83930099 5.000000
23.57119942 -17.76539993 -14.74180031 5.000000
14.97679996 -12.18159962 0.16149500 5.000000
23.99390030 -17.65159988 -16.24670029 5.000000
15.04590034 -43.25690079 11.76669979 5.000000
-4.94383001 -28.79190063 -54.26929855 5.000000
13.38150024 -30.61310005 -38.75170135 5.000000
14.26410007 -29.99010086 -38.19869995 5.000000
15.59350014 -29.33359909 -37.72909927 5.000000
15.65569973 -44.28359985 13.22080040 5.000000
14.04749966 -30.20809937 -39.74679947 5.000000
15.11919975 -29.87249947 -39.22679901 5.000000
16.53960037 -29.15439987 -38.75519943 5.000000
3.53123999 -20.34239960 28.21470070 5.000000
4.62041998 -21.18810081 28.78190041 5.000000
4.61414003 -20.69849968 27.27809906 5.000000
5.62701988 -21.66539955 28.28459930 5.000000
4.25444984 -20.03459930 26.33860016 5.000000
5.77062988 -21.51469994 26.83309937 5.000000
16.71269989 -48.27799988 16.13820076 5.000000
7.78481007 -22.58600044 24.30010033 5.000000
17.22769928 -47.25880051 16.64349937 5.000000
8.72914028 -23.55410004 25.29610062 5.000000
8.30720043 -23.01709938 23.29150009 5.000000
9.28369999 -24.03070068 23.76619911 5.000000
2.49793005 -32.37699890 -59.76630020 5.000000
4.06732988 -21.66729927 31.26300049 5.000000
3.19753003 -32.55749893 -61.17480087 5.000000
5.61084986 -22.17720032 32.27600098 5.000000
6.07848978 -22.24780083 29.25930023 5.000000
7.21670008 -23.00609970 29.76329994 5.000000
6.64666986 -22.15270042 27.77650070 5.000000
7.73420000 -22.98909950 28.28400040 5.000000
3.45787001 -46.67679977 -4.15740013 5.000000
18.09259987 -47.25920105 17.73870087 5.000000
6.62666988 -22.54809952 33.77140045 5.000000
6.60237980 -22.68029976 31.75679970 5.000000
5.66009998 -22.16110039 30.78120041 5.000000
8.07822990 -23.24329948 31.25600052 5.000000
8.63199997 -23.62330055 29.75029945 5.000000
7.82053995 -23.01600075 26.29420090 5.000000
9.22060013 -24.06920052 27.25230026 5.000000
19.22960091 -47.21969986 19.09049988 5.000000
18.25160027 -44.23929977 18.61510086 5.000000
7.68003988 -23.02479935 33.26330185 5.000000
22.57139969 -29.26449966 -44.74380112 5.000000
21.59650040 -29.35799980 -45.75510025 5.000000
24.04770088 -28.72500038 -44.23199844 5.000000
21.08889961 -28.14979935 -35.77700043 5.000000
9.02748013 -37.72769928 -10.73009968 5.000000
7.52792978 -22.89710045 34.75820160 5.000000
8.59724045 -23.15600014 35.77780151 5.000000
23.55750084 -28.73810005 -45.73770142 5.000000
24.72949982 -27.91449928 -44.80860138 5.000000
8.56124973 -23.28730011 34.25799942 5.000000
9.09640980 -23.69350052 31.75070000 5.000000
10.03479958 -24.27129936 32.26490021 5.000000
12.75230026 -30.69549942 -18.25340080 5.000000
13.11719990 -29.76910019 -19.73940086 5.000000
13.60840034 -28.77420044 -20.73539925 5.000000
20.59860039 -27.49230003 -33.63899994 5.000000
5.61170006 -47.80780029 0.23622300 5.000000
9.58141041 -23.16469955 36.74150085 5.000000
9.09239006 -23.65500069 33.24259949 5.000000
2.09425998 -32.56669998 -43.26850128 5.000000
10.55840015 -23.79990005 34.26509857 5.000000
3.57637000 -33.52069855 -47.78239822 5.000000
11.71910000 -25.50679970 28.71269989 5.000000
12.97980022 -25.93359947 29.79920006 5.000000
12.03230000 -25.83650017 27.26790047 5.000000
13.06040001 -26.27680016 28.26029968 5.000000
14.09519958 -26.71080017 29.24250031 5.000000
25.37070084 -26.96829987 -45.38230133 5.000000
11.10949993 -34.27999878 -10.24969959 5.000000
3.05831003 -32.94869995 -44.22389984 5.000000
19.74550056 -43.22620010 20.60190010 5.000000
7.56166983 -22.79719925 36.75949860 5.000000
10.05889988 -22.99570084 38.30649948 5.000000
11.12380028 -24.13369942 33.22539902 5.000000
12.17990017 -24.59840012 33.70040131 5.000000
15.23250008 -26.39649963 -22.20829964 5.000000
17.06509972 -24.75460052 -23.24489975 5.000000
17.82530022 -24.49860001 -24.32430077 5.000000
19.55459976 -24.71209908 -27.26679993 5.000000
-5.42958021 -34.75949860 -25.24250031 5.000000
21.40920067 -46.30730057 21.47559929 5.000000
18.14760017 -23.85899925 -23.20409966 5.000000
7.53026009 -22.43610001 38.77939987 5.000000
9.07481956 -22.56590080 39.71129990 5.000000
8.56686020 -22.79430008 38.26409912 5.000000
21.88899994 -45.32550049 22.00359917 5.000000
10.07240009 -22.29019928 40.76929855 5.000000
10.56499958 -22.63439941 39.73049927 5.000000
10.63409996 -23.50239944 35.68679810 5.000000
12.08710003 -23.70960045 36.74020004 5.000000
12.62709999 -24.10479927 35.69789886 5.000000
-1.83510005 -28.17560005 -58.68610001 5.000000
8.56663036 -33.23249817 -45.24129868 5.000000
10.07460022 -21.73520088 42.23889923 5.000000
10.08269978 -33.11999893 -45.73740005 5.000000
9.58016014 -33.39770126 -48.24209976 5.000000
30.03499985 -26.70599937 -40.21960068 5.000000
11.65260029 -21.96949959 40.62979889 5.000000
12.10499954 -22.58849907 39.68709946 5.000000
11.65380001 -23.04080009 38.17480087 5.000000
13.15600014 -23.03610039 39.15359879 5.000000
18.26219940 -20.97340012 -16.13739967 5.000000
19.11490059 -22.86100006 -22.70540047 5.000000
20.10440063 -22.35820007 -22.21120071 5.000000
20.95680046 -21.57309914 -21.84849930 5.000000
17.65089989 -20.85009956 -14.69649982 5.000000
18.78170013 -20.04910088 -15.10599995 5.000000
19.54360008 -20.21750069 -16.26140022 5.000000
21.13260078 -20.86899948 -20.68980026 5.000000
-5.43860006 -32.61180115 -44.31370163 5.000000
4.33804989 -15.62290001 17.87380028 5.000000
5.00074005 -15.79599953 16.71389961 5.000000
6.07789993 -16.75769997 15.76119995 5.000000
23.62870026 -18.32119942 -18.21839905 5.000000
12.15859985 -48.78530121 9.68204021 5.000000
24.54459953 -17.23970032 -18.25250053 5.000000
23.43210030 -19.03630066 -19.87120056 5.000000
24.40920067 -18.02759933 -19.36669922 5.000000
9.61007023 -14.77309990 7.27763987 5.000000
9.83100033 -13.24559975 7.58796978 5.000000
9.77437019 -11.78330040 7.55562019 5.000000
12.80060005 -45.59420013 8.43272018 5.000000
19.11750031 -16.94470024 -9.13665009 5.000000
20.52379990 -16.72229958 -9.75500011 5.000000
13.64470005 -44.28710175 8.71679020 5.000000
21.11190033 -17.36499977 -11.70349979 5.000000
20.60810089 -18.88899994 -15.71650028 5.000000
13.47010040 -43.23780060 7.80391979 5.000000
13.05570030 -48.75799942 10.76570034 5.000000
18.55719948 -29.58979988 -43.25159836 5.000000
22.07740021 -16.71820068 -11.25909996 5.000000
22.02820015 -17.55680084 -12.81340027 5.000000
21.55489922 -18.21910095 -14.25450039 5.000000
13.49479961 -30.66290092 -40.75659943 5.000000
21.05739975 -16.22310066 -8.75389957 5.000000
22.01939964 -15.63790035 -8.29574966 5.000000
22.05550003 -16.20070076 -9.75879955 5.000000
23.57909966 -17.28560066 -13.23079967 5.000000
24.60499954 -17.35359955 -14.21230030 5.000000
14.18669987 -43.28219986 9.20147991 5.000000
3.47946000 -19.36980057 25.70420074 5.000000
5.15176010 -20.67009926 25.78820038 5.000000
4.61274004 -19.72369957 24.77260017 5.000000
5.72769022 -20.13339996 22.31139946 5.000000
6.79103994 -21.52140045 23.33729935 5.000000
6.72763014 -20.63100052 20.31520081 5.000000
7.57960987 -21.74970055 20.76009941 5.000000
17.59339905 -27.34869957 -32.21640015 5.000000
18.10700035 -26.87240028 -31.22130013 5.000000
7.19198990 -20.67490005 18.79529953 5.000000
8.13731003 -22.19790077 19.77330017 5.000000
19.09359932 -26.37730026 -30.69729996 5.000000
14.52159977 -30.17539978 -41.24700165 5.000000
15.57629967 -29.78079987 -40.74119949 5.000000
16.62019920 -29.43070030 -40.22029877 5.000000
-5.42816019 -29.24880028 -53.23529816 5.000000
15.43050003 -42.25299835 12.32349968 5.000000
6.75977993 -22.07419968 26.29269981 5.000000
18.98629951 -24.11339951 -25.27919960 5.000000
19.18829918 -23.52549934 -24.11079979 5.000000
20.05220032 -24.20619965 -26.26729965 5.000000
7.70862007 -22.12380028 22.28899956 5.000000
8.29751015 -22.56959915 21.29940033 5.000000
9.18054008 -23.68790054 22.26009941 5.000000
15.86559963 -42.75049973 13.33259964 5.000000
14.79119968 -42.22119904 10.84910011 5.000000
5.19553995 -21.56800079 29.79809952 5.000000
18.56859970 -29.74069977 -44.74399948 5.000000
6.32417011 -21.49620056 25.32880020 5.000000
19.55879974 -29.67840004 -45.74140167 5.000000
20.02580070 -29.55130005 -47.22589874 5.000000
14.49940014 -41.75030136 9.78133965 5.000000
5.63134003 -20.70549965 24.27599907 5.000000
23.54210091 -28.22780037 -47.23160172 5.000000
24.26849937 -27.93720055 -46.30929947 5.000000
6.73466015 -21.06870079 21.81200027 5.000000
12.83460045 -31.55540085 -41.74549866 5.000000
13.57050037 -31.25440025 -42.74380112 5.000000
11.12969971 -32.94580078 -39.75379944 5.000000
11.53450012 -32.68790054 -41.24269867 5.000000
22.57519913 -29.20829964 -38.75090027 5.000000
13.95919991 -42.24309921 8.30352020 5.000000
-0.72463298 -28.57519913 -60.14080048 5.000000
-0.71644700 -27.62310028 -61.14630127 5.000000
0.25166300 -29.61289978 -60.18069839 5.000000
0.01129700 -28.79229927 -61.25609970 5.000000
13.51119995 -41.74789810 7.28454018 5.000000
11.75949955 -34.31930161 -5.26672983 5.000000
11.94089985 -35.22869873 -3.22797990 5.000000
11.97119999 -33.73339844 -4.23338985 5.000000
14.21510029 -40.77149963 8.72052002 5.000000
11.75090027 -36.31460190 -2.26172996 5.000000
12.06309986 -35.75730133 -1.24158001 5.000000
12.19960022 -34.29449844 -2.26403999 5.000000
12.48219967 -35.24179840 -0.23529001 5.000000
12.51329994 -33.74800110 -1.23515999 5.000000
65.18939972 -3.32026005 21.69260025 5.000000
67.46929932 0.84958500 24.25880051 5.000000
65.30020142 -2.50474000 19.79030037 5.000000
68.09020233 1.73118997 23.25979996 5.000000
65.57230377 -2.26374006 21.25600052 5.000000
18.07679939 -29.03809929 -39.75510025 5.000000
22.14629936 -28.92020035 -47.27289963 5.000000
15.13319969 -27.81889915 -29.23229980 5.000000
67.79969788 -1.80087996 25.19569969 5.000000
68.54199982 -2.76383996 26.27519989 5.000000
68.07039642 -0.76018900 25.75679970 5.000000
68.58059692 0.74687201 28.75209999 5.000000
68.52279663 1.76093996 27.75530052 5.000000
69.00129700 0.23150600 29.77129936 5.000000
68.49960327 1.73999000 29.77569962 5.000000
69.27870178 2.79202008 28.26499939 5.000000
19.06780052 -28.48250008 -37.18040085 5.000000
12.21090031 -32.45309830 -43.21400070 5.000000
13.12870026 -31.79450035 -44.23880005 5.000000
-1.98799002 -30.96520042 -39.66659927 5.000000
14.15130043 -30.86269951 -44.23469925 5.000000
14.59490013 -30.32990074 -43.24150085 5.000000
9.64986992 -24.05550003 30.71859932 5.000000
9.26060963 -23.92099953 28.74609947 5.000000
10.23219967 -24.49519920 29.22249985 5.000000
12.67570019 -32.33060074 -45.23320007 5.000000
61.17279816 3.80463004 48.87089920 5.000000
26.70529938 -26.38479996 -43.83029938 5.000000
28.17130089 -25.92259979 -42.86569977 5.000000
63.64479828 1.81633997 48.35589981 5.000000
29.19050026 -25.38540077 -42.32469940 5.000000
27.24469948 -25.47319984 -44.40090179 5.000000
64.19650269 2.37424994 47.40959930 5.000000
64.25749969 3.42692995 46.45589828 5.000000
64.64510345 1.30799997 47.84120178 5.000000
28.34950066 -24.93000031 -44.02209854 5.000000
60.67639923 0.82625800 50.91529846 5.000000
61.17739868 -0.63225400 51.46960068 5.000000
12.87629986 -33.78820038 -35.24729919 5.000000
66.23560333 -1.46606004 20.24370003 5.000000
55.73180008 2.76284003 53.47850037 5.000000
67.41290283 -0.72591901 22.79920006 5.000000
56.66740036 2.27664995 52.89950180 5.000000
67.96990204 -0.15570800 21.73600006 5.000000
57.51729965 1.20756996 52.66759872 5.000000
57.74700165 2.81215000 51.99829865 5.000000
68.19090271 1.22078001 25.74830055 5.000000
68.09549713 2.23411012 24.76199913 5.000000
35.04299927 -3.76255012 54.85459900 5.000000
43.57289886 0.26860401 57.03939819 5.000000
59.63090134 -0.70224398 52.36800003 5.000000
63.51969910 -2.37515998 51.62549973 5.000000
27.57349968 -12.17959976 52.50500107 5.000000
28.58259964 -13.18400002 52.08729935 5.000000
61.55590057 -1.74511003 6.76954985 5.000000
66.73490143 1.89899004 44.89110184 5.000000
67.18039703 0.87966299 45.86199951 5.000000
68.15190125 1.39512002 44.34410095 5.000000
68.57099915 0.74322897 45.75849915 5.000000
69.04579926 1.65518999 43.21450043 5.000000
6.61686993 -22.52949905 35.76029968 5.000000
29.76479912 -25.12849998 45.48490143 5.000000
56.13679886 4.75304985 52.84360123 5.000000
56.21070099 6.29785013 52.43840027 5.000000
56.53919983 7.22960997 51.72729874 5.000000
37.09489822 -21.24620056 51.21269989 5.000000
47.14899826 -15.26679993 56.06359863 5.000000
14.81750011 -48.81819916 13.57209969 5.000000
63.25030136 0.43684301 49.52939987 5.000000
63.66540146 -1.09527004 50.44940186 5.000000
9.82003975 -24.47780037 26.25099945 5.000000
64.60720062 -2.09677005 50.90599823 5.000000
65.59529877 -2.62314010 51.38140106 5.000000
66.57389832 -3.25055003 51.76689911 5.000000
66.62300110 -2.05148005 50.46120071 5.000000
33.91830063 -31.38949966 44.88130188 5.000000
64.12409973 -5.08287001 54.45790100 5.000000
38.29290009 -33.58390045 48.06769943 5.000000
38.74800110 -33.16249847 49.13169861 5.000000
38.12530136 -31.23660088 49.70339966 5.000000
39.12839890 -32.22949982 50.19810104 5.000000
39.63320160 -31.73889923 51.19879913 5.000000
40.95640182 -30.76910019 52.86949921 5.000000
60.56980133 -10.29810047 58.10179901 5.000000
12.99740028 -41.24369812 5.78485012 5.000000
27.61420059 -40.21649933 29.18210030 5.000000
53.98369980 6.66072989 53.59970093 5.000000
54.99240112 5.21490002 53.64920044 5.000000
5.69791985 -19.64819908 20.80960083 5.000000
51.52249908 4.23047018 55.65579987 5.000000
16.58950043 -16.23329926 49.17819977 5.000000
52.44120026 5.13101006 54.97909927 5.000000
52.99869919 6.12659979 54.05500031 5.000000
62.52379990 1.69664001 49.18949890 5.000000
21.58189964 -27.74259949 36.74449921 5.000000
22.53109932 -28.80200005 36.29270172 5.000000
23.58270073 -29.74200058 36.24209976 5.000000
65.63430023 -4.09628010 52.93109894 5.000000
67.96250153 -3.38267994 51.10820007 5.000000
67.57790375 -1.73815000 49.77790070 5.000000
59.69580078 6.82249022 48.40520096 5.000000
61.24069977 7.29543018 46.38460159 5.000000
62.15629959 5.30317020 46.83190155 5.000000
21.17720032 -33.16260147 29.17760086 5.000000
22.23209953 -34.60210037 28.60339928 5.000000
62.18159866 6.31287003 45.84619904 5.000000
28.64220047 -39.66450119 30.10160065 5.000000
63.11119843 5.27695990 45.79809952 5.000000
61.99200058 7.70628977 45.18740082 5.000000
30.07049942 -40.25930023 30.25569916 5.000000
22.13199997 -33.18030167 30.19440079 5.000000
22.71540070 -34.08489990 29.60820007 5.000000
23.20019913 -33.58720016 30.61720085 5.000000
26.13459969 -32.65100098 34.16249847 5.000000
34.06069946 -32.26860046 43.76240158 5.000000
34.98910141 -32.85369873 44.30670166 5.000000
34.92770004 -31.90500069 45.39160156 5.000000
58.13079834 6.26891994 50.30789948 5.000000
59.12360001 4.26642990 50.31809998 5.000000
59.01219940 5.70876980 49.69699860 5.000000
23.61149979 -37.23609924 27.72060013 5.000000
25.02689934 -37.78570175 28.80200005 5.000000
31.04310036 -39.81259918 30.84449959 5.000000
67.64379883 0.00784000 47.42029953 5.000000
69.12319946 -0.06756600 46.89369965 5.000000
69.59649658 0.83278698 44.81140137 5.000000
70.03240204 1.10310996 43.67229843 5.000000
70.97709656 0.49062699 44.11029816 5.000000
15.80370045 -34.70460129 16.19560051 5.000000
15.31910038 -33.33459854 16.31979942 5.000000
15.88679981 -33.62239838 17.64259911 5.000000
16.22489929 -35.21730042 17.20159912 5.000000
20.52860069 -35.78850174 25.28720093 5.000000
33.52849960 -35.86019897 34.84629822 5.000000
21.37479973 -35.88359833 26.40620041 5.000000
31.66920090 -34.03340149 36.09769821 5.000000
34.03670120 -35.34479904 35.81969833 5.000000
22.65999985 -36.70460129 27.17740059 5.000000
32.13029861 -33.64749908 37.19490051 5.000000
41.50559998 -29.76679993 53.32740021 5.000000
33.03430176 -34.32659912 36.79109955 5.000000
35.61159897 -33.71549988 43.73709869 5.000000
35.95650101 -33.39540100 44.84719849 5.000000
36.85150146 -33.99399948 45.41500092 5.000000
28.97739983 -40.85779953 29.44409943 5.000000
17.08049965 -24.73060036 38.24399948 5.000000
17.65830040 -29.66679955 28.70579910 5.000000
18.10160065 -24.66550064 39.20709991 5.000000
18.77930069 -30.61240005 28.64669991 5.000000
18.59989929 -24.19099998 40.21509933 5.000000
31.52449989 -32.84809875 38.29339981 5.000000
17.80290031 -29.04700089 29.90749931 5.000000
18.03660011 -25.33919907 37.79439926 5.000000
18.50489998 -28.85210037 31.30730057 5.000000
19.79129982 -30.08209991 31.10989952 5.000000
32.58390045 -33.23389816 38.74589920 5.000000
19.53980064 -24.83009911 39.80099869 5.000000
19.08580017 -25.22120094 38.73509979 5.000000
20.11879921 -29.71430016 32.22219849 5.000000
33.49710083 -33.92050171 38.32559967 5.000000
19.12439919 -26.14999962 37.19369888 5.000000
20.02210045 -25.86210060 38.32500076 5.000000
20.51169968 -25.40180016 39.35419846 5.000000
23.65699959 -26.10020065 40.61640167 5.000000
34.11709976 -34.67509842 37.21009827 5.000000
20.24189949 -26.99370003 36.56790161 5.000000
21.07369995 -26.75469971 37.75279999 5.000000
21.56150055 -26.27429962 38.76760101 5.000000
13.58839989 -21.17760086 43.19540024 5.000000
24.60470009 -29.70849991 37.21390152 5.000000
12.56159973 -21.83289909 41.79479980 5.000000
14.06499958 -21.83889961 42.30500031 5.000000
25.48929977 -29.40119934 38.36980057 5.000000
25.98859978 -28.88489914 39.36140060 5.000000
13.19270039 -22.44510078 40.59999847 5.000000
26.00559998 -30.38389969 37.34370041 5.000000
26.61009979 -29.68099976 38.70240021 5.000000
14.53859997 -22.43269920 41.35240173 5.000000
27.17200089 -31.01359940 37.08560181 5.000000
27.61750031 -30.67099953 38.18590164 5.000000
28.12840080 -30.15589905 39.19179916 5.000000
14.54329967 -23.37140083 39.31119919 5.000000
15.53160000 -22.88649940 40.82310104 5.000000
28.11739922 -31.66010094 36.68410110 5.000000
15.50179958 -23.94849968 38.86069870 5.000000
28.94779968 -31.47439957 37.90489960 5.000000
29.25180054 -30.97480011 39.07490158 5.000000
16.55529976 -23.80579948 39.78400040 5.000000
16.99699974 -23.42989922 40.85549927 5.000000
30.08519936 -32.23559952 37.74160004 5.000000
63.10400009 -6.68415022 55.87170029 5.000000
64.07740021 -6.24789000 55.27389908 5.000000
65.49099731 -5.37726021 54.09669876 5.000000
15.98680019 -25.96669960 34.33779907 5.000000
17.16069984 -26.54339981 34.16830063 5.000000
18.07279968 -27.25609970 33.75469971 5.000000
16.96419907 -25.97830009 35.35319901 5.000000
17.04820061 -25.30839920 36.77939987 5.000000
13.07619953 -19.23469925 45.23350143 5.000000
19.64109993 -24.05130005 41.10359955 5.000000
14.58279991 -19.72820091 45.22840118 5.000000
15.54259968 -20.36170006 44.83700180 5.000000
16.07419968 -19.74729919 45.74649811 5.000000
17.57430077 -20.24530029 45.74499893 5.000000
17.62590027 -22.07189941 43.11019897 5.000000
18.59830093 -21.66230011 44.17380142 5.000000
19.10740089 -21.10709953 45.12879944 5.000000
18.59860039 -22.65600014 42.68119812 5.000000
19.57290077 -22.25110054 43.74990082 5.000000
21.06380081 -22.28429985 44.27579880 5.000000
62.04700089 -0.28495499 50.71820068 5.000000
13.59519958 -24.69190025 35.22840118 5.000000
32.60169983 -37.17129898 33.16049957 5.000000
15.01249981 -25.38100052 34.80120087 5.000000
60.44160080 2.62899995 50.06890106 5.000000
33.53290176 -37.87820053 32.88719940 5.000000
13.67140007 -40.25780106 7.21605015 5.000000
14.60429955 -24.67980003 36.22309875 5.000000
33.52909851 -36.85089874 33.85499954 5.000000
14.69149971 -40.26100159 10.21500015 5.000000
15.40400028 -40.76660156 12.33269978 5.000000
34.62409973 -36.59400177 34.61569977 5.000000
15.95989990 -41.26269913 13.79539967 5.000000
37.60279846 -33.73360062 46.73080063 5.000000
18.02510071 -19.42910004 46.91579819 5.000000
65.23239899 2.38264990 46.39960098 5.000000
64.27770233 4.42522001 45.46649933 5.000000
27.10289955 -23.19300079 45.17369843 5.000000
12.08539963 -39.26319885 2.25101995 5.000000
12.89029980 -39.73440170 5.32009983 5.000000
59.49290085 8.21407986 48.17729950 5.000000
26.61230087 -32.17499924 35.18840027 5.000000
51.13909912 -20.76090050 57.59289932 5.000000
55.25699997 6.80779982 52.99589920 5.000000
51.98139954 -19.76609993 57.97890091 5.000000
57.20790100 4.77994013 51.92789841 5.000000
57.58589935 5.74638987 51.27069855 5.000000
58.52080154 7.21998978 49.21229935 5.000000
14.16689968 -39.25740051 8.72076988 5.000000
15.62870026 -39.25469971 13.23410034 5.000000
16.16850090 -40.25109863 14.72159958 5.000000
16.58139992 -39.75870132 15.75209999 5.000000
21.16600037 -34.68629837 27.17779922 5.000000
22.23800087 -35.62620163 27.59469986 5.000000
18.95249939 -32.85250092 26.32819939 5.000000
20.07780075 -34.25379944 26.25160027 5.000000
20.11280060 -31.72439957 29.72719955 5.000000
21.09110069 -32.23870087 30.23979950 5.000000
21.73830032 -31.57500076 32.11230087 5.000000
22.14999962 -31.12420082 33.16569901 5.000000
24.50510025 -30.89259911 35.35380173 5.000000
25.52580070 -30.84189987 36.31389999 5.000000
27.15870094 -29.09709930 40.12760162 5.000000
28.54249954 -29.79949951 40.28549957 5.000000
60.07479858 -11.74699974 58.32479858 5.000000
68.11470032 -1.14444005 48.84049988 5.000000
69.63300323 -1.11960995 47.85889816 5.000000
20.53989983 -31.28580093 30.77860069 5.000000
32.05540085 -39.30569839 31.32299995 5.000000
13.11929989 -23.60440063 37.70090103 5.000000
14.14309978 -24.10079956 37.20159912 5.000000
16.05319977 -24.81380081 37.27819824 5.000000
22.15909958 -25.60129929 40.13119888 5.000000
16.00410080 -25.40990067 35.82699966 5.000000
68.69950104 -2.04737997 49.44599915 5.000000
25.60860062 -35.72669983 30.71080017 5.000000
9.55445004 -20.79999924 42.80350113 5.000000
11.59329987 -19.59919930 44.62139893 5.000000
58.17399979 3.77940989 51.37519836 5.000000
48.51229858 -23.26420021 56.38299942 5.000000
17.47660065 -41.77149963 17.30820084 5.000000
17.45159912 -39.77579880 17.81739998 5.000000
30.77659988 -31.94890022 39.09199905 5.000000
63.13399887 6.29437017 44.82429886 5.000000
62.73030090 8.26270962 44.40380096 5.000000
15.55640030 -31.26810074 20.26090050 5.000000
15.94250011 -32.30649948 19.79870033 5.000000
63.74890137 6.85303020 43.92829895 5.000000
63.37530136 8.77132034 43.44789886 5.000000
16.24720001 -31.66780090 21.68490028 5.000000
16.63139915 -32.73080063 21.22839928 5.000000
17.29920006 -33.16260147 22.67580032 5.000000
16.89559937 -31.82780075 23.31209946 5.000000
17.70260048 -32.69480133 24.19090080 5.000000
18.33440018 -33.92119980 23.90200043 5.000000
54.01580048 0.73204100 54.65000153 5.000000
18.57509995 -33.25699997 25.25379944 5.000000
19.51420021 -34.79819870 24.79470062 5.000000
16.68989944 -36.23649979 17.71179962 5.000000
17.22200012 -36.21870041 19.19639969 5.000000
17.83900070 -37.33900070 19.86820030 5.000000
35.11729813 -36.17520142 35.69440079 5.000000
35.04560089 -35.32059860 36.78570175 5.000000
21.08139992 -24.72430038 40.73210144 5.000000
21.13979912 -23.53470039 42.58399963 5.000000
22.11160088 -24.13829994 42.16510010 5.000000
22.61370087 -23.58900070 43.12049866 5.000000
14.97290039 -39.75600052 11.28829956 5.000000
16.97520065 -41.26940155 16.29409981 5.000000
18.08429909 -23.20669937 41.71920013 5.000000
19.55500031 -23.29890060 42.28469849 5.000000
20.31879997 -33.54830170 27.57620049 5.000000
15.11219978 -21.09280014 43.63729858 5.000000
15.52750015 -21.95669937 42.39599991 5.000000
16.57089996 -22.75720024 41.75469971 5.000000
25.90839958 -27.93289948 40.45660019 5.000000
55.07300186 -15.76550007 58.71929932 5.000000
43.15069962 -29.27199936 54.64160156 5.000000
44.03319931 -28.25189972 54.82720184 5.000000
44.89509964 -27.66250038 55.53279877 5.000000
46.02610016 -27.25830078 55.37179947 5.000000
18.12969971 -26.12389946 36.18840027 5.000000
18.55349922 -26.79339981 35.27420044 5.000000
19.24469948 -27.50270081 34.59339905 5.000000
34.61809921 -37.68579865 33.63100052 5.000000
15.79189968 -28.56240082 26.66220093 5.000000
16.22380066 -29.62479973 25.69490051 5.000000
16.50790024 -29.32320023 27.28759956 5.000000
17.31209946 -30.58250046 26.14030075 5.000000
24.74390030 -44.66270065 24.54570007 5.000000
17.90159988 -30.40019989 27.37709999 5.000000
25.39049911 -43.86040115 25.47010040 5.000000
18.85160065 -31.91799927 27.41309929 5.000000
19.06019974 -30.26889992 29.76329994 5.000000
28.58300018 -42.74480057 28.22310066 5.000000
19.78479958 -32.09629822 28.61020088 5.000000
15.20129967 -49.30199814 14.67609978 5.000000
30.05100060 -41.80229950 29.32360077 5.000000
31.06150055 -41.28070068 29.78689957 5.000000
11.63939953 -34.37400055 -55.23139954 5.000000
12.63010025 -33.28570175 -55.24069977 5.000000
11.45380020 -34.68640137 -56.73369980 5.000000
12.53989983 -33.74470139 -56.74390030 5.000000
12.08520031 -34.27140045 -57.74280167 5.000000
12.96809959 -33.18370056 -57.75770187 5.000000
11.57779980 -35.39989853 -63.22449875 5.000000
12.75349998 -34.82529831 -63.20069885 5.000000
13.40569973 -33.19250107 -63.27239990 5.000000
12.80970001 -34.13100052 -64.25810242 5.000000
12.12609959 -35.29990005 -65.23829651 5.000000
13.31989956 -33.60160065 -65.26869965 5.000000
12.31760025 -35.93590164 -69.70520020 5.000000
12.86489964 -34.68090057 -69.75939941 5.000000
13.74740028 -33.38190079 -69.72920227 5.000000
12.46360016 -35.72169876 -71.24739838 5.000000
13.21220016 -34.33980179 -71.22440338 5.000000
12.82730007 -35.14619827 -72.25170135 5.000000
13.59000015 -33.77249908 -72.24230194 5.000000
12.49419975 -36.22729874 -75.24490356 5.000000
13.14939976 -34.80569839 -75.23639679 5.000000
13.85120010 -33.62960052 -74.75420380 5.000000
12.79959965 -35.63069916 -76.25949860 5.000000
13.51060009 -34.22999954 -76.24539948 5.000000
23.70330048 -36.15869904 28.63139915 5.000000
24.62660027 -36.72090149 29.20079994 5.000000
13.54080009 -32.21810150 -55.24729919 5.000000
15.02760029 -30.64349937 -56.24670029 5.000000
13.58979988 -32.28850174 -57.23899841 5.000000
14.59490013 -31.29210091 -57.23870087 5.000000
13.80700016 -32.94850159 -66.21959686 5.000000
14.75179958 -31.97050095 -66.24349976 5.000000
15.74390030 -30.90220070 -66.23809814 5.000000
14.25679970 -32.44990158 -67.24079895 5.000000
15.24880028 -31.41990089 -67.73670197 5.000000
14.22920036 -32.87910080 -68.71980286 5.000000
15.69960022 -30.85239983 -68.74140167 5.000000
14.61909962 -32.29090118 -70.23950195 5.000000
15.40310001 -31.14389992 -70.23889923 5.000000
18.73329926 -48.25479889 18.61030006 5.000000
22.06900024 -24.43840027 -27.14710045 5.000000
23.02919960 -23.98859978 -26.42749977 5.000000
24.06920052 -23.25419998 -25.74749947 5.000000
23.06970024 -24.76549911 -27.73999977 5.000000
24.07500076 -24.30480003 -27.21139908 5.000000
25.06859970 -23.81080055 -26.70479965 5.000000
23.55130005 -25.35969925 -28.68029976 5.000000
25.06520081 -24.91690063 -28.11619949 5.000000
26.06970024 -24.27169991 -27.23299980 5.000000
24.57029915 -25.75720024 -29.24530029 5.000000
26.08670044 -25.62509918 -28.85110092 5.000000
25.53599930 -26.43619919 -30.14789963 5.000000
27.07130051 -25.25169945 -28.25040054 5.000000
26.64879990 -27.04070091 -30.41119957 5.000000
27.08480072 -26.18530083 -29.30540085 5.000000
28.06870079 -25.76639938 -28.73699951 5.000000
28.10840034 -27.11870003 -29.85650063 5.000000
29.05209923 -26.39019966 -29.11669922 5.000000
15.00640011 -30.19820023 -46.75510025 5.000000
16.53730011 -30.07180023 -46.75579834 5.000000
15.57339954 -30.27599907 -48.74259949 5.000000
17.02659988 -30.06259918 -48.73789978 5.000000
14.94040012 -31.08580017 -59.27199936 5.000000
15.86960030 -30.49640083 -58.77289963 5.000000
16.96030045 -29.63579941 -58.72159958 5.000000
15.61380005 -30.82029915 -60.23410034 5.000000
16.44050026 -30.07620049 -59.76549911 5.000000
17.17819977 -29.39229965 -60.76610184 5.000000
15.38920021 -31.04689980 -61.75659943 5.000000
16.41290092 -30.09799957 -62.25120163 5.000000
17.36459923 -29.06789970 -62.24840164 5.000000
15.60560036 -29.94230080 -42.24079895 5.000000
17.00849915 -29.50250053 -41.77519989 5.000000
17.57589912 -29.84189987 -45.73630142 5.000000
21.06970024 -24.74589920 -27.75070000 5.000000
22.06979942 -25.26720047 -28.73970032 5.000000
23.05660057 -25.83889961 -29.70199966 5.000000
24.05739975 -26.39520073 -30.15550041 5.000000
25.09919930 -27.12459946 -31.33699989 5.000000
26.08079910 -27.71299934 -31.77750015 5.000000
27.58790016 -27.68350029 -31.28669930 5.000000
28.07270050 -28.46899986 -32.18500137 5.000000
29.25909996 -27.66309929 -30.21139908 5.000000
29.61969948 -30.68120003 40.20989990 5.000000
30.69350052 -31.08839989 40.65169907 5.000000
31.67679977 -31.62319946 41.18519974 5.000000
20.51219940 -22.58309937 -23.32259941 5.000000
20.58989906 -23.32320023 -24.70750046 5.000000
21.06500053 -23.71789932 -25.76359940 5.000000
22.06970024 -23.25799942 -25.24480057 5.000000
16.39620018 -27.01219940 -28.83699989 5.000000
16.59429932 -27.30389977 -30.23030090 5.000000
16.12579918 -27.83810043 -31.22620010 5.000000
18.60309982 -27.40999985 -33.19089890 5.000000
17.61969948 -27.92469978 -34.19749832 5.000000
16.57049942 -29.76219940 -43.24300003 5.000000
15.54269981 -30.08250046 -44.24700165 5.000000
18.10820007 -28.79929924 -59.75630188 5.000000
10.51630020 -38.12429810 -80.26959991 5.000000
11.90299988 -37.65079880 -80.25409698 5.000000
11.35630035 -38.09999847 -81.26959991 5.000000
23.21139908 -19.99539948 -21.07049942 5.000000
24.61580086 -18.86370087 -20.65699959 5.000000
24.09670067 -20.82399940 -22.68750000 5.000000
25.14889908 -19.91340065 -22.08489990 5.000000
26.52339935 -19.19249916 -22.32110023 5.000000
25.08939934 -21.30789948 -23.70149994 5.000000
26.05760002 -20.73299980 -23.26969910 5.000000
27.16519928 -20.36079979 -23.61269951 5.000000
26.10269928 -21.88999939 -24.62529945 5.000000
17.47200012 -26.59659958 -29.80229950 5.000000
18.09390068 -29.91150093 -47.74459839 5.000000
18.09580040 -29.85540009 -49.74330139 5.000000
13.63589954 -31.32999992 -45.73699951 5.000000
12.61089993 -30.59020042 -46.71260071 5.000000
12.92710018 -32.20619965 -46.75130081 5.000000
13.48939991 -31.69540024 -47.77230072 5.000000
14.58520031 -30.77429962 -47.73880005 5.000000
13.45119953 -32.16600037 -53.76319885 5.000000
13.55140018 -29.99370003 -53.73410034 5.000000
16.07659912 -30.27260017 -55.74319839 5.000000
14.03509998 -31.71430016 -58.25049973 5.000000
14.40439987 -32.08900070 -64.28089905 5.000000
15.41329956 -31.09910011 -64.25579834 5.000000
16.46899986 -30.16320038 -64.24510193 5.000000
12.78110027 -33.65290070 -60.34519958 5.000000
13.49530029 -32.69139862 -60.25379944 5.000000
14.50850010 -31.68869972 -60.25389862 5.000000
12.98509979 -33.70830154 -61.76309967 5.000000
13.79920006 -32.49670029 -61.69940186 5.000000
13.43799973 -33.67300034 -67.25350189 5.000000
11.09949970 -32.89270020 -42.73949814 5.000000
14.99180031 -31.69840050 -69.24169922 5.000000
11.94460011 -33.70840073 -47.71960068 5.000000
14.28190041 -32.88679886 -73.73870087 5.000000
14.91600037 -31.69569969 -73.73310089 5.000000
12.23820019 -33.16019821 -48.95149994 5.000000
14.62170029 -32.28340149 -74.74400330 5.000000
15.12390041 -30.76899910 -74.75000000 5.000000
13.02620029 -32.22340012 -49.74670029 5.000000
14.27239990 -32.87049866 -75.74310303 5.000000
11.56949997 -33.25880051 -51.74330139 5.000000
12.90550041 -32.58549881 -51.77009964 5.000000
11.08629990 -34.28590012 -52.73870087 5.000000
12.38029957 -33.06900024 -52.78889847 5.000000
11.88269997 -34.07789993 -53.76290131 5.000000
11.70750046 -34.43289948 -59.71279907 5.000000
11.94909954 -34.67070007 -61.26050186 5.000000
12.61820030 -34.79100037 -66.23609924 5.000000
13.34360027 -33.98320007 -68.70310211 5.000000
14.01469994 -33.21709824 -71.24410248 5.000000
14.36660004 -32.62350082 -72.24929810 5.000000
13.10280037 -34.78060150 -73.73960114 5.000000
12.53230000 -35.24110031 -68.25219727 5.000000
10.57159996 -33.83860016 -51.23820114 5.000000
14.87450027 -31.55010033 -63.27140045 5.000000
14.96129990 -31.69359970 -71.74069977 5.000000
13.44839954 -30.33399963 -58.79230118 5.000000
12.08839989 -30.11809921 -47.73889923 5.000000
12.57919979 -30.14830017 -49.24290085 5.000000
14.06799984 -30.41990089 -48.76229858 5.000000
13.38160038 -31.60400009 -50.75350189 5.000000
13.57299995 -30.16970062 -50.24160004 5.000000
13.89910030 -31.53610039 -52.79040146 5.000000
14.55879974 -30.03639984 -52.71979904 5.000000
11.93700027 -33.19029999 -45.75880051 5.000000
11.06599998 -33.20709991 -46.74409866 5.000000
11.02120018 -33.53820038 -48.74259949 5.000000
13.40660000 -34.70470047 -78.26550293 5.000000
14.03310013 -33.24349976 -78.24349976 5.000000
13.08419991 -32.26399994 1.25528002 5.000000
13.03269958 -30.76409912 0.75310397 5.000000
13.03619957 -32.25210190 -0.24098900 5.000000
12.95370007 -30.29739952 -0.73839998 5.000000
12.96090031 -32.21699905 -1.73420000 5.000000
13.11419964 -30.75609970 -2.24359989 5.000000
12.62380028 -32.78329849 -2.74945998 5.000000
13.21829987 -31.76989937 -3.24506998 5.000000
12.57810020 -32.76580048 -4.74213982 5.000000
13.05519962 -31.25909996 -5.24144983 5.000000
11.90320015 -33.18909836 -5.72595978 5.000000
12.42029953 -32.19499969 -6.22274017 5.000000
12.75839996 -30.79649925 -6.74612999 5.000000
11.73429966 -16.79920006 1.83397996 5.000000
12.22599983 -15.81079960 1.33029997 5.000000
12.99199963 -15.23299980 0.21323900 5.000000
12.07520008 -17.26169968 0.75932300 5.000000
12.66660023 -16.78739929 -0.19903800 5.000000
13.37670040 -15.68990040 -0.86142802 5.000000
12.27620029 -18.14679909 -0.38038099 5.000000
12.88000011 -17.69669914 -1.34188998 5.000000
11.36610031 -33.54050064 -50.26089859 5.000000
13.48369980 -16.71839905 -1.79264998 5.000000
13.98330021 -17.72579956 -3.28830004 5.000000
14.99839973 -19.71190071 -7.78921986 5.000000
14.39200020 -21.16419983 -8.32740021 5.000000
15.06389999 -20.75609970 -9.24635029 5.000000
13.16409969 -32.27790070 2.73841000 5.000000
13.16530037 -30.74419975 2.25369000 5.000000
12.21389961 -27.70240021 6.30340004 5.000000
12.65019989 -28.23329926 7.75488997 5.000000
14.52519989 -32.24420166 -76.74109650 5.000000
14.69379997 -30.76129913 -77.26280212 5.000000
18.11420059 -29.32279968 -56.25730133 5.000000
19.01329994 -28.56949997 -56.69160080 5.000000
12.99860001 -29.28249931 7.26218987 5.000000
14.49559975 -31.74959946 -78.25279999 5.000000
12.58430004 -28.75429916 5.75510979 5.000000
12.18560028 -27.71980095 4.75327015 5.000000
16.96780014 -29.65430069 -63.25230026 5.000000
17.83259964 -28.40589905 -63.26160049 5.000000
27.07060051 -23.76079941 -26.74169922 5.000000
13.15170002 -30.23209953 5.75363016 5.000000
12.53520012 -28.77849960 4.26008987 5.000000
17.19129944 -29.34639931 -64.75129700 5.000000
22.57600021 -20.77420044 -21.73320007 5.000000
16.66430092 -29.84440041 -65.74109650 5.000000
16.91349983 -29.17180061 -66.72270203 5.000000
16.15769958 -30.32789993 -67.25000000 5.000000
23.06159973 -21.72780037 -23.26799965 5.000000
16.40259933 -29.66010094 -68.22830200 5.000000
16.11759949 -29.77729988 -69.73999786 5.000000
25.12310028 -22.47610092 -25.04080009 5.000000
15.89309978 -29.71220016 -71.21399689 5.000000
26.58329964 -28.20339966 -32.76599884 5.000000
27.57010078 -28.76029968 -33.24290085 5.000000
29.06529999 -28.76709938 -33.24420166 5.000000
15.46759987 -30.71570015 -72.24389648 5.000000
26.07530022 -22.79990005 -25.70820045 5.000000
26.57959938 -28.68639946 -34.24720001 5.000000
15.51220036 -29.75349998 -73.23220062 5.000000
29.06780052 -28.81809998 -34.75090027 5.000000
11.75689983 -26.15870094 5.27405024 5.000000
11.60900021 -25.25270081 4.26034021 5.000000
11.99639988 -26.76269913 3.74615002 5.000000
11.90030003 -26.30139923 2.25732994 5.000000
12.23419952 -27.74880028 2.78437996 5.000000
11.96560001 -27.25760078 1.25309002 5.000000
12.62139988 -29.23780060 2.75327992 5.000000
12.53859997 -28.77079964 1.25752997 5.000000
24.16099930 -21.99950027 -24.03849983 5.000000
12.16609955 -28.24489975 -0.24031299 5.000000
18.64529991 -27.81290054 -60.27349854 5.000000
17.92000008 -28.13979912 -61.20040131 5.000000
27.07320023 -22.26729965 -25.23509979 5.000000
28.07229996 -24.32990074 -27.16169930 5.000000
17.65530014 -28.29500008 -65.25579834 5.000000
13.56410027 -32.25989914 7.25767994 5.000000
23.07360077 -22.77809906 -24.73010063 5.000000
13.39869976 -31.29529953 6.27761984 5.000000
21.03210068 -29.13190079 -48.22240067 5.000000
19.03240013 -29.60799980 -48.72790146 5.000000
13.32019997 -32.73220062 5.76243019 5.000000
24.09860039 -16.30559921 -12.21409988 5.000000
13.45960045 -31.76009941 4.76078987 5.000000
20.03669930 -29.17289925 -49.72600174 5.000000
17.03420067 -30.07119942 -51.73249817 5.000000
13.30469990 -30.66780090 4.22245979 5.000000
18.53100014 -29.65150070 -52.23830032 5.000000
13.27929974 -33.25519943 4.22980022 5.000000
22.62789917 -26.56150055 -30.85799980 5.000000
19.08390045 -29.29280090 -53.25059891 5.000000
16.55570030 -30.05780029 -53.23740005 5.000000
18.04780006 -29.71120071 -53.73720169 5.000000
23.64399910 -26.96109962 -31.40719986 5.000000
22.58469963 -27.18610001 -32.28390121 5.000000
12.78369999 -33.70230103 1.77702999 5.000000
24.08889961 -27.64480019 -32.31169891 5.000000
16.74309921 -30.04059982 -56.78089905 5.000000
25.13899994 -27.99510002 -32.87459946 5.000000
23.06529999 -27.77890015 -33.23500061 5.000000
24.07589912 -28.19179916 -33.76890182 5.000000
23.06690025 -28.27330017 -34.73889923 5.000000
10.56060028 -35.25559998 -10.74219990 5.000000
21.99659920 -22.47430038 -23.93230057 5.000000
12.77530003 -35.83689880 -77.73329926 5.000000
12.55430031 -36.75500107 -78.74559784 5.000000
12.97760010 -35.71509933 -79.25769806 5.000000
19.08099937 -15.80659962 -7.72812986 5.000000
17.27039909 -17.97150040 -9.08316994 5.000000
14.77649975 -36.74160004 11.20499992 5.000000
14.55519962 -35.26179886 10.76070023 5.000000
14.48299980 -37.77059937 9.77816010 5.000000
14.35960007 -36.25820160 9.80414963 5.000000
14.15159988 -37.25870132 8.73305035 5.000000
13.94309998 -35.26630020 8.29090977 5.000000
13.74880028 -36.76750183 7.21805000 5.000000
13.89970016 -38.26190186 7.82405996 5.000000
13.47509956 -38.75690079 6.78552008 5.000000
13.49779987 -35.76340103 6.27332020 5.000000
13.10680008 -38.26050186 5.74626017 5.000000
12.80449963 -38.23479843 4.30664015 5.000000
13.10159969 -36.76620102 4.25157022 5.000000
12.78750038 -37.29999924 3.19853997 5.000000
17.59099960 -28.86440086 -38.22769928 5.000000
11.07349968 -34.86940002 -58.22620010 5.000000
