-36.632286	-81.955948	28.251617
-36.457455	-82.054276	28.282257
-36.451103	-82.260254	28.31189
-36.635021	-82.364693	28.308947
-36.763611	-82.167511	29.647697
-36.937195	-82.06868	29.617107
-36.936337	-81.868248	29.588951
-36.760895	-81.761177	29.590708
-36.583908	-81.864212	29.622217
-36.57526	-82.074013	29.652609
-36.763611	-82.167511	29.647697
-36.89159	-82.018204	30.98341
-37.097118	-81.899872	30.947004
-37.101776	-81.659317	30.912664
-36.888317	-81.528397	30.914711
-36.668732	-81.651939	30.953201
-36.684166	-81.897293	30.98629
-36.89159	-82.018204	30.98341
-36.91909	-81.749825	31.095545
-37.000134	-81.772667	31.05434
-37.042213	-81.79879	30.97336
-37.028454	-81.819206	30.87883
-36.956966	-81.824303	30.809719
-36.860146	-81.810966	30.800652
-36.77977	-81.787338	30.84557
-36.735138	-81.760887	30.926235
-36.760593	-81.743355	31.01652
-36.82629	-81.737854	31.083454
-36.91909	-81.749825	31.095545
-37.097195	-80.633331	30.823797
-37.180752	-80.655167	30.788469
-37.220905	-80.681366	30.705879
-37.204639	-80.701035	30.61282
-37.1329	-80.70491	30.548637
-37.038151	-80.69458	30.528387
-36.962631	-80.669693	30.581821
-36.917164	-80.643875	30.659266
-36.938766	-80.62574	30.749489
-37.007965	-80.622261	30.810343
-37.097195	-80.633331	30.823797
-37.247643	-79.7006	30.982225
-37.332451	-79.707764	30.939859
-37.366196	-79.70018	30.85416
-37.354958	-79.685265	30.767591
-37.295094	-79.666077	30.704254
-37.206921	-79.648788	30.683338
-37.122845	-79.641724	30.72559
-37.087273	-79.648849	30.810249
-37.096668	-79.663712	30.898388
-37.156807	-79.683449	30.965078
-37.247643	-79.7006	30.982225
-37.375458	-78.89473	31.483784
-37.453888	-78.883331	31.44492
-37.497913	-78.849876	31.379236
-37.499233	-78.803543	31.303743
-37.438889	-78.762001	31.252041
-37.353245	-78.737038	31.233801
-37.271061	-78.748077	31.273054
-37.227901	-78.783783	31.342175
-37.226612	-78.831245	31.419489
-37.289921	-78.872665	31.470219
-37.375458	-78.89473	31.483784
-37.489197	-78.184494	32.315674
-37.571232	-78.164764	32.287281
-37.619423	-78.112587	32.235535
-37.609295	-78.047455	32.18066
-37.564701	-77.98735	32.134907
-37.47821	-77.968735	32.130787
-37.396355	-77.983879	32.155197
-37.35186	-78.036766	32.207054
-37.346855	-78.103058	32.265018
-37.408627	-78.154228	32.300678
-37.489197	-78.184494	32.315674
-37.589645	-77.543564	33.429752
-37.669136	-77.526665	33.41304
-37.717865	-77.468445	33.375805
-37.71455	-77.394951	33.334656
-37.66573	-77.332863	33.304054
-37.584053	-77.306541	33.296585
-37.508732	-77.335701	33.319832
-37.454033	-77.388565	33.354591
-37.457947	-77.463028	33.396229
-37.50993	-77.522568	33.425114
-37.589645	-77.543564	33.429752
-37.678791	-76.985039	34.795029
-37.756268	-76.965164	34.781845
-37.799019	-76.902977	34.753654
-37.803432	-76.828293	34.72287
-37.753082	-76.767448	34.701321
-37.675697	-76.74337	34.696548
-37.603706	-76.771706	34.71283
-37.546768	-76.824242	34.738007
-37.558529	-76.899483	34.76796
-37.600555	-76.963615	34.791397
-37.678791	-76.985039	34.795029
-37.75808	-76.48391	36.353462
-37.828079	-76.458939	36.341965
-37.872963	-76.402893	36.321877
-37.879105	-76.329216	36.298157
-37.829254	-76.271057	36.282219
-37.756153	-76.239243	36.275833
-37.684505	-76.271217	36.289635
-37.632122	-76.326591	36.309895
-37.635628	-76.403061	36.334007
-37.686123	-76.459938	36.349506
-37.75808	-76.48391	36.353462
-37.829903	-76.03466	38.059021
-37.903446	-76.014633	38.050659
-37.943775	-75.952667	38.032665
-37.946068	-75.879921	38.013443
-37.900509	-75.820862	37.999832
-37.828602	-75.795708	37.996246
-37.757607	-75.820953	38.005875
-37.708408	-75.877533	38.022823
-37.717003	-75.950882	38.041748
-37.759716	-76.009064	38.055248
-37.829903	-76.03466	38.059021
-37.896656	-75.607933	39.859303
-37.962605	-75.587181	39.852058
-38.01289	-75.53569	39.838284
-38.002171	-75.465111	39.822353
-37.962067	-75.409668	39.811012
-37.895702	-75.382454	39.807178
-37.827431	-75.406265	39.815216
-37.779324	-75.460838	39.829624
-37.779331	-75.534882	39.846752
-37.828098	-75.589905	39.857674
-37.896656	-75.607933	39.859303
-37.960419	-75.212685	41.694431
-38.030136	-75.194183	41.687996
-38.069347	-75.135101	41.673813
-38.070271	-75.065323	41.658646
-38.026836	-75.009834	41.648117
-37.959599	-74.992096	41.646606
-37.897682	-75.016319	41.654015
-37.851284	-75.065102	41.666206
-37.857899	-75.132103	41.680511
-37.893082	-75.190277	41.69191
-37.960419	-75.212685	41.694431
-41.336418	-66.452553	39.226994
-44.447712	-72.017357	41.708656
-33.696606	-72.496048	41.023552
-33.534904	-73.002945	41.351707
-45.478035	-71.997322	41.948845
-46.664471	-69.45089	41.673149
-45.034847	-73.673004	44.057835
-43.733807	-73.125404	42.373501
-44.436184	-72.649574	42.094021
-43.135826	-75.025391	43.655754
-34.954029	-65.697922	39.551281
-42.270645	-69.785332	40.495262
-44.190632	-67.149117	39.974701
-41.915195	-65.98632	39.085518
-40.108715	-67.715187	39.609917
-40.027588	-66.875351	39.410236
-46.218277	-68.786469	41.416138
-40.44413	-65.971062	39.178932
-35.961056	-66.690781	39.611645
-41.367111	-65.878174	39.021805
-32.489101	-65.958611	40.233639
-35.720188	-66.068802	39.507862
-36.124817	-66.825066	39.631752
-39.219059	-63.907108	39.398964
-38.855465	-62.674404	39.322987
-37.831173	-62.624268	39.33197
-40.439838	-64.291557	39.063862
-40.66478	-63.321346	38.918892
-37.970127	-62.03043	39.259701
-39.254227	-62.616577	39.291637
-40.006504	-63.554897	39.194118
-39.636444	-63.032875	39.279949
-40.241993	-62.941856	39.124649
-39.115891	-62.258858	39.042454
-43.08009	-73.188164	42.209557
-34.736862	-64.576385	39.435719
-42.76516	-65.922668	39.251316
-43.025246	-65.564575	39.117115
-44.509666	-66.21653	39.699409
-46.77253	-67.957191	41.098389
-41.08704	-71.031769	40.634472
-35.24876	-73.137466	41.20306
-35.611526	-73.780746	41.386173
-36.765739	-75.267685	41.566814
-46.34269	-68.642723	41.392735
-46.220703	-69.223358	41.58588
-43.918739	-66.13858	39.425308
-41.299339	-76.132439	43.501366
-40.759613	-75.745064	42.774326
-39.796894	-73.955254	41.576061
-39.710526	-73.181503	41.324932
-39.729401	-75.835655	42.228752
-38.540482	-74.018486	41.586971
-38.89064	-75.194168	41.795681
-39.202808	-74.98278	41.778465
-38.657009	-74.504242	41.658539
-32.983692	-71.617294	40.86615
-32.999802	-72.885681	41.333996
-32.270172	-73.272812	41.801823
-32.438534	-72.86618	41.351521
-34.798897	-74.006477	41.586533
-36.075691	-72.858223	41.109936
-37.29438	-72.575424	41.149231
-30.414097	-73.554497	42.728313
-41.780151	-67.149567	39.627506
-40.663189	-66.363228	39.256439
-44.801327	-72.308678	41.897591
-45.199097	-72.528709	42.227032
-44.728756	-73.064323	42.759205
-44.15947	-73.130287	42.545235
-45.417542	-73.128281	43.362442
-45.08062	-73.099251	43.180172
-44.951118	-73.313766	43.44133
-43.739826	-74.003998	43.230164
-43.263538	-74.195007	43.046524
-45.755054	-71.492355	41.88063
-43.01088	-66.432465	39.520943
-42.381405	-69.549026	40.450264
-41.709576	-70.21521	40.499004
-32.450909	-71.714401	40.928947
-32.442848	-70.693954	40.892857
-43.678761	-73.504021	42.708233
-40.207962	-74.844368	41.984646
-39.559704	-74.796066	41.778801
-39.683289	-74.550156	41.726776
-31.674223	-73.499542	42.107525
-34.690437	-63.37075	39.258396
-33.675522	-68.238808	40.487293
-32.66114	-73.67643	42.007935
-31.818386	-73.358276	41.910995
-33.115513	-73.394096	41.720245
-31.818453	-72.862762	41.228924
-31.354332	-73.626778	42.31097
-31.585182	-73.323708	41.910526
-43.102161	-64.786186	39.042168
-36.759029	-70.767502	40.366539
-31.869881	-72.376411	41.005283
-31.614391	-70.435547	40.971394
-30.72934	-72.05368	40.511536
-31.135977	-70.275177	40.988464
-31.285032	-71.624084	40.788849
-31.751972	-71.179108	40.929104
-31.868368	-71.473419	40.897682
-31.229469	-71.032059	40.938633
-30.517582	-73.360405	42.442261
-30.884817	-73.301552	42.077881
-30.090698	-72.893196	42.003922
-31.204678	-73.025711	41.475189
-30.720392	-73.057808	41.000546
-30.76787	-72.457611	40.459122
-30.508429	-72.790054	40.372555
-31.160717	-72.812164	40.986916
-31.357908	-72.43647	40.883739
-31.090599	-72.078209	40.643372
-30.34178	-72.174118	40.0956
-30.104765	-71.633385	40.503586
-30.717701	-71.583031	40.638138
-30.052771	-70.092491	40.785934
-30.713587	-71.059837	40.841034
-30.477287	-70.403786	40.984184
-30.628124	-69.353378	40.973602
-43.903805	-71.008896	41.337639
-31.783546	-69.655052	40.918705
-32.223442	-75.004509	42.649529
-38.913963	-63.502972	39.386093
-33.326626	-68.035492	40.526485
-39.886024	-62.700947	39.014198
-40.371536	-62.979866	38.996758
-29.93298	-70.158379	41.014137
-35.951992	-75.802559	41.801247
-36.856712	-61.379192	39.344776
-30.875147	-74.458755	42.939266
-43.975037	-74.368675	43.914196
-45.962467	-69.919113	41.687328
-33.214287	-66.294098	40.208866
-36.292606	-61.707634	39.340729
-42.729214	-74.584648	42.97673
-37.556366	-63.84726	39.389046
-35.416584	-75.103592	41.709759
-42.361698	-65.178329	38.994286
-38.752956	-71.135269	40.55405
-39.179871	-68.85466	39.863899
-33.814789	-66.561501	40.140884
-46.191311	-70.506462	41.828041
-34.0397	-74.54911	41.965645
-35.311554	-72.668533	40.995472
-36.399899	-67.564049	39.748081
-41.977863	-74.297478	42.383034
-37.968517	-66.205498	39.546627
-38.897591	-67.089493	39.597946
-31.860741	-74.227501	42.491634
-36.063465	-74.374794	41.420483
-39.977108	-68.561653	39.812256
-40.256744	-68.981247	39.944752
-38.253307	-68.189911	39.807777
-36.149693	-70.954887	40.436722
-32.618927	-72.267929	41.033516
-39.312641	-69.908638	40.138153
-43.11301	-71.283112	41.247753
-42.788078	-72.024048	41.446899
-38.475903	-62.454029	39.344349
-39.315033	-74.019394	41.591194
-39.713333	-72.482742	41.086746
-32.228443	-74.039963	42.318455
-37.663475	-71.288429	40.574989
-35.916992	-62.020756	39.341976
-32.68745	-70.929329	40.887188
-42.514812	-73.358505	42.087395
-42.34333	-74.012589	42.402004
-34.716743	-68.247765	40.289551
-37.159954	-70.440208	40.265202
-34.555428	-69.320999	40.420761
-30.734814	-74.176735	42.900074
-43.275543	-72.552086	41.788288
-35.007355	-66.484238	39.756615
-36.542351	-73.671471	41.311356
-34.446873	-72.286835	40.90757
-31.709177	-69.32618	40.87994
-42.243809	-70.680595	40.785381
-33.903881	-75.804604	42.351414
-32.480049	-67.004906	40.494343
-35.931633	-68.70118	40.048985
-42.245808	-68.096146	39.998863
-33.849392	-71.523499	40.756432
-44.1805	-71.550827	41.537388
-34.174587	-65.556892	39.681351
-38.248444	-64.816643	39.429455
-41.267509	-64.369827	38.898758
-34.456825	-71.554947	40.701317
-39.914429	-70.744331	40.438786
-35.684875	-74.140617	41.45121
-41.144722	-74.247787	42.047737
-44.823666	-71.339699	41.632389
-38.019917	-69.230026	39.973869
-35.482193	-71.531471	40.624359
-40.514954	-73.697968	41.606197
-33.0116	-74.258095	42.153088
-35.960804	-63.931381	39.336098
-35.594635	-67.509087	39.89983
-38.340187	-72.733719	41.288666
-35.902977	-70.240639	40.304527
-39.314484	-72.251152	41.021542
-32.205067	-65.235619	40.053684
-45.889599	-67.106552	40.494843
-43.589657	-74.567543	43.594875
-31.175076	-73.896957	42.613914
-41.761955	-69.201866	40.223366
-40.382275	-71.626068	40.73119
-40.837513	-68.418625	39.871391
-31.671228	-68.283409	40.743366
-42.547073	-72.607994	41.692604
-30.22987	-67.096077	40.65062
-33.183395	-69.916931	40.719902
-33.231804	-72.353302	41.000542
-42.373596	-75.821533	43.828468
-43.114075	-73.615623	42.543442
-37.371235	-74.708954	41.43335
-45.967045	-68.134674	41.080982
-41.69043	-73.374588	41.814949
-34.688606	-73.320923	41.339802
-36.856316	-71.821594	40.712139
-42.051159	-75.350311	43.185097
-45.144875	-69.253708	41.268627
-38.044197	-71.934784	40.924599
-43.18792	-67.428879	39.94762
-34.150967	-73.01033	41.209137
-41.404366	-71.769035	40.979645
-39.739635	-66.264832	39.377762
-39.406639	-67.735794	39.650799
-30.016245	-68.274742	41.082249
-36.560093	-72.489883	40.982059
-44.763493	-70.611374	41.507969
-42.207993	-66.742249	39.501926
-33.325214	-65.258896	39.844299
-43.200172	-71.609047	41.359623
-36.566597	-65.621872	39.438427
-40.295071	-74.186119	41.733688
-33.832928	-64.355087	39.486191
-41.131874	-65.726662	39.034397
-43.359207	-68.779129	40.484711
-40.170815	-65.115181	39.208675
-39.596741	-64.620827	39.348354
-33.944916	-73.666527	41.649815
-36.232216	-75.035278	41.512348
-40.555534	-72.696785	41.206673
-34.073475	-67.150558	40.234627
-36.787582	-68.237373	39.82206
-40.876087	-75.442543	42.633167
-44.081047	-66.840157	39.758675
-34.712677	-70.704086	40.549652
-44.387218	-73.586975	43.355499
-39.85284	-75.24955	42.031582
-44.786938	-67.916176	40.584911
-38.714321	-73.170685	41.390816
-41.169575	-63.437763	38.96711
-36.381092	-69.527924	40.105362
-42.164219	-74.884125	42.872238
-37.514896	-67.075775	39.653179
-43.854698	-72.578751	41.887512
-39.235374	-65.790726	39.410343
-43.693924	-70.081314	41.041954
-34.79871	-74.989128	41.819088
-40.569546	-70.139412	40.2868
-37.830811	-69.85173	40.110519
-37.610641	-73.37355	41.441223
-43.970016	-68.293617	40.482151
-35.222179	-64.83223	39.354095
-40.680248	-67.459846	39.545864
-41.495155	-65.009705	38.943626
-43.174316	-75.0951	43.87133
-37.986301	-61.819027	39.193615
-36.893394	-81.999352	30.894569
-37.086216	-81.892616	30.945822
-37.082825	-81.673256	31.001253
-36.886604	-81.560646	31.005432
-36.693783	-81.667381	30.95418
-36.697174	-81.886742	30.898748
-36.893394	-81.999352	30.894569
-36.725517	-82.319702	32.241993
-36.910839	-82.229843	32.28801
-36.900181	-82.023346	32.339264
-36.71941	-81.924927	32.341755
-36.545097	-82.019936	32.295803
-36.536469	-82.224678	32.242588
-36.725517	-82.319702	32.241993
-36.556835	-82.66758	33.592655
-36.731915	-82.568169	33.639828
-36.736874	-82.364502	33.692307
-36.55043	-82.253723	33.697239
-36.377968	-82.365021	33.647366
-36.366917	-82.56929	33.593971
-36.556835	-82.66758	33.592655
-36.388096	-83.009995	34.944462
-36.569248	-82.915749	34.991077
-36.556175	-82.71524	35.040501
-36.381771	-82.601265	35.047749
-36.210796	-82.710014	34.998711
-36.213936	-82.904694	34.949532
-36.388096	-83.009995	34.944462
-36.219528	-83.363617	36.293434
-36.395641	-83.25705	36.342556
-36.391945	-83.05687	36.393066
-36.213051	-82.944855	36.399258
-36.030533	-83.047493	36.350334
-36.039406	-83.252022	36.299362
-36.219528	-83.363617	36.293434
-36.050808	-83.709007	37.644722
-36.236916	-83.606956	37.693943
-36.232616	-83.395821	37.747169
-36.044281	-83.287224	37.751308
-35.863434	-83.392601	37.701897
-35.87492	-83.593834	37.652092
-36.050808	-83.709007	37.644722
-35.883553	-84.069473	38.98201
-36.090992	-83.96109	39.035503
-36.081543	-83.728432	39.093567
-35.876541	-83.616287	39.096531
-35.666248	-83.717316	39.044552
-35.684467	-83.948235	38.988026
-35.883553	-84.069473	38.98201
-35.818249	-83.956902	38.954845
-35.8666	-83.899811	38.890709
-35.922535	-83.81633	38.882683
-35.959221	-83.744621	38.941853
-35.963779	-83.71376	39.032578
-35.943893	-83.71904	39.128109
-35.893356	-83.780388	39.188789
-35.837627	-83.863579	39.196716
-35.798805	-83.937752	39.140591
-35.794159	-83.969345	39.047604
-35.818249	-83.956902	38.954845
-37.03569	-84.741562	39.169518
-37.080868	-84.687546	39.112129
-37.133129	-84.610565	39.100773
-37.16708	-84.543785	39.157104
-37.174522	-84.510178	39.241512
-37.153706	-84.518135	39.33226
-37.105606	-84.577141	39.387714
-37.055084	-84.653992	39.389423
-37.015308	-84.726517	39.345135
-37.009315	-84.759109	39.256149
-37.03569	-84.741562	39.169518
-38.122097	-85.45919	39.708046
-38.181053	-85.405762	39.660038
-38.235386	-85.331261	39.648773
-38.255478	-85.259102	39.702816
-38.245628	-85.21566	39.779179
-38.206032	-85.215225	39.85881
-38.149498	-85.260887	39.912109
-38.099831	-85.335678	39.913681
-38.07069	-85.411682	39.872684
-38.078857	-85.46048	39.792702
-38.122097	-85.45919	39.708046
-39.074265	-86.068169	40.553913
-39.140808	-86.034409	40.503807
-39.188824	-85.958145	40.505863
-39.205997	-85.880539	40.543648
-39.179375	-85.83094	40.610149
-39.128227	-85.811432	40.682133
-39.060268	-85.855988	40.72588
-39.008411	-85.93045	40.729477
-38.997574	-86.006699	40.685555
-39.015854	-86.065712	40.621513
-39.074265	-86.068169	40.553913
-39.89238	-86.605522	41.640057
-39.96283	-86.567093	41.605995
-40.01149	-86.497116	41.603798
-40.025379	-86.416748	41.63282
-39.989395	-86.359787	41.68782
-39.925842	-86.341698	41.744446
-39.856491	-86.381058	41.777222
-39.807735	-86.449501	41.780247
-39.795261	-86.528534	41.750816
-39.825493	-86.591484	41.697197
-39.89238	-86.605522	41.640057
-40.611713	-87.071175	42.955055
-40.682167	-87.033844	42.929878
-40.727058	-86.967682	42.928974
-40.743507	-86.887917	42.948479
-40.701904	-86.827324	42.992867
-40.632214	-86.80941	43.037357
-40.561127	-86.843063	43.064194
-40.51405	-86.909698	43.066124
-40.507973	-86.987183	43.041767
-40.545372	-87.046455	43.000149
-40.611713	-87.071175	42.955055
-41.242691	-87.479973	44.450546
-41.313019	-87.444359	44.430702
-41.364285	-87.382614	44.426102
-41.365673	-87.304085	44.447159
-41.325905	-87.242439	44.480923
-41.255455	-87.227676	44.514706
-41.18079	-87.246498	44.541008
-41.133141	-87.315102	44.542194
-41.127651	-87.396034	44.522202
-41.174442	-87.453239	44.486702
-41.242691	-87.479973	44.450546
-41.799961	-87.828026	46.079464
-41.870781	-87.808746	46.059532
-41.922359	-87.747375	46.055603
-41.920746	-87.668732	46.073753
-41.877163	-87.610092	46.101791
-41.808079	-87.5951	46.128799
-41.733673	-87.609138	46.151131
-41.686558	-87.675987	46.152302
-41.693462	-87.752106	46.132908
-41.728226	-87.816681	46.10656
-41.799961	-87.828026	46.079464
-42.308971	-88.164948	47.824474
-42.37952	-88.140274	47.808605
-42.415493	-88.075508	47.810455
-42.429043	-88.001991	47.820518
-42.383018	-87.94545	47.844711
-42.31535	-87.918869	47.869507
-42.245171	-87.947586	47.884499
-42.206329	-88.010956	47.883747
-42.201546	-88.082962	47.871422
-42.243153	-88.139084	47.848595
-42.308971	-88.164948	47.824474
-42.783684	-88.473862	49.642536
-42.848675	-88.442307	49.630951
-42.892509	-88.386581	49.629013
-42.893375	-88.315933	49.640842
-42.855621	-88.257462	49.660679
-42.788498	-88.245094	49.680313
-42.723698	-88.264488	49.693924
-42.675854	-88.319038	49.697109
-42.678982	-88.390976	49.684017
-42.714127	-88.453133	49.664234
-42.783684	-88.473862	49.642536
-43.237904	-88.760521	51.482681
-43.302544	-88.738686	51.470242
-43.347603	-88.683685	51.467995
-43.339581	-88.615395	51.480995
-43.302391	-88.563751	51.498512
-43.242126	-88.537674	51.517605
-43.174011	-88.556435	51.531395
-43.134785	-88.617058	51.5313
-43.138096	-88.68541	51.519451
-43.173157	-88.742393	51.501598
-43.237904	-88.760521	51.482681
-49.26989	-94.93988	49.360882
-43.287594	-95.362946	51.579449
-47.139885	-86.070763	50.947174
-46.769115	-85.731651	51.24535
-42.893692	-96.242218	51.802696
-44.586208	-98.254578	51.587132
-41.61528	-95.19252	53.745346
-42.620331	-94.31665	52.182732
-42.750439	-95.101212	51.928699
-41.226521	-93.052124	53.349171
-52.424728	-89.829536	49.686546
-46.057613	-94.407486	50.487263
-47.540401	-97.078133	50.043312
-49.438442	-95.615135	49.235832
-48.679226	-93.398972	49.698822
-49.425804	-93.663116	49.52681
-45.32935	-98.140549	51.35907
-50.030907	-94.374481	49.325603
-51.185093	-90.290092	49.724335
-49.747562	-95.193947	49.178978
-53.166473	-87.634521	50.323429
-51.808689	-90.332321	49.638428
-51.006344	-90.375656	49.740566
-52.259262	-94.150589	49.568623
-53.448139	-94.329895	49.519402
-53.895039	-93.481972	49.530205
-51.456902	-95.034843	49.247009
-52.19212	-95.609428	49.127907
-54.344273	-93.834648	49.472691
-53.340115	-94.690704	49.490501
-52.249859	-94.957939	49.382072
-52.836754	-94.850136	49.471832
-52.677181	-95.399956	49.327362
-53.701771	-94.716278	49.264011
-42.828053	-93.739075	52.029434
-53.462254	-90.089203	49.598198
-49.153931	-96.359291	49.390583
-49.356659	-96.721832	49.27095
-48.208702	-97.718338	49.801636
-45.817932	-98.939445	51.075584
-45.467209	-92.911758	50.597664
-45.98064	-87.131195	51.10154
-45.289558	-87.183342	51.261028
-43.571377	-87.572731	51.402489
-45.402328	-98.302841	51.339489
-44.955616	-97.969048	51.510166
-48.512589	-97.250175	49.547722
-41.016823	-91.060135	53.188595
-41.569904	-90.760231	52.516663
-43.485493	-90.658684	51.429165
-44.179012	-90.892609	51.207947
-41.908966	-89.854996	52.006817
-43.928032	-89.569351	51.440166
-42.790604	-89.400398	51.614426
-42.846615	-89.748421	51.601509
-43.46944	-89.475792	51.498505
-48.168289	-85.81485	50.816296
-47.080074	-85.324783	51.231625
-47.032795	-84.551056	51.663239
-47.318001	-84.856934	51.249184
-45.416107	-86.404633	51.445602
-45.892029	-87.942513	51.018074
-45.649532	-89.086319	51.057831
-47.512306	-82.862061	52.526985
-48.497784	-95.038116	49.722485
-49.610977	-94.404701	49.390953
-42.898117	-95.546318	51.750458
-42.549294	-95.794411	52.053928
-42.272797	-95.181305	52.542725
-42.445267	-94.674278	52.342495
-41.936764	-95.735939	53.104309
-42.097389	-95.463081	52.934986
-41.96262	-95.26712	53.175537
-41.859921	-93.969681	52.96814
-41.889256	-93.491867	52.793957
-43.213051	-96.67672	51.747231
-48.620728	-96.364502	49.6334
-46.214729	-94.594902	50.449112
-45.915085	-93.762405	50.484196
-48.295467	-85.324806	50.874107
-49.16349	-85.721222	50.857971
-42.315968	-94.118507	52.489101
-42.563461	-90.653328	51.795052
-42.86377	-90.124489	51.6045
-43.024078	-90.326607	51.559933
-47.071198	-83.95488	51.945911
-54.50457	-90.527092	49.453323
-50.762543	-87.737465	50.519405
-46.53318	-84.721611	51.848309
-47.137089	-84.133949	51.764465
-46.5975	-85.219719	51.583641
-47.567818	-84.33374	51.135609
-47.086483	-83.632446	52.134315
-47.258492	-83.950066	51.764977
-49.986748	-97.094856	49.214203
-47.404903	-89.351486	50.35836
-47.963047	-84.570717	50.934917
-49.708305	-85.121033	50.937061
-48.694904	-83.734955	50.480789
-50.032818	-84.779015	50.956497
-48.834743	-84.373703	50.746498
-49.024895	-84.94416	50.884529
-48.730171	-84.926704	50.849918
-49.355667	-84.55957	50.896751
-47.640461	-83.028069	52.262859
-47.55117	-83.364548	51.922806
-48.211891	-82.853569	51.861919
-47.668243	-83.748009	51.363861
-47.840057	-83.327904	50.920483
-48.338428	-83.608368	50.424793
-48.160759	-83.257813	50.338562
-47.874401	-83.797997	50.911316
-48.116379	-84.114029	50.821072
-48.529293	-84.030502	50.603024
-48.752739	-83.361549	50.090607
-49.297699	-83.371925	50.481541
-49.096054	-83.910225	50.607224
-50.618687	-83.934784	50.772011
-49.537498	-84.112175	50.805843
-50.184139	-84.170273	50.951275
-51.014359	-84.712959	50.959255
-44.362556	-95.302689	51.250923
-50.303379	-85.572891	50.901012
-45.570839	-83.822525	52.425659
-52.72226	-94.051834	49.564014
-51.071911	-87.52198	50.560059
-53.023613	-95.194214	49.228832
-52.595898	-95.495438	49.206997
-50.606495	-83.805939	50.984314
-43.435986	-86.670776	51.613575
-55.334232	-93.148178	49.565086
-46.560913	-82.894226	52.707851
-41.447041	-94.020851	53.600731
-44.466709	-97.474915	51.593376
-52.596302	-88.116463	50.293407
-55.278946	-92.540642	49.556496
-41.771442	-92.885773	52.722828
-52.966858	-92.765831	49.562889
-44.240932	-86.493835	51.540924
-49.94788	-96.313019	49.163822
-46.302795	-90.894173	50.524246
-48.07692	-92.160614	49.917942
-52.133739	-88.519936	50.224369
-43.876583	-97.435959	51.714409
-45.250244	-85.544968	51.791679
-46.356369	-87.370811	50.915527
-50.269932	-90.316132	49.836132
-42.321083	-92.366234	52.174099
-50.804226	-92.182648	49.668907
-49.687725	-92.620216	49.700237
-46.374752	-83.823097	52.292038
-44.607368	-87.331352	51.282177
-48.011013	-92.951973	49.873528
-47.543041	-93.022354	49.989697
-49.006813	-91.638603	49.878342
-47.485737	-88.760902	50.421635
-47.758595	-85.247902	50.96204
-47.127365	-91.855186	50.155876
-44.444138	-94.525047	51.163395
-43.941719	-93.955986	51.337223
-53.784359	-94.095284	49.543732
-43.621258	-90.22509	51.442932
-44.773575	-91.172363	50.997391
-46.391155	-84.209663	52.132877
-46.603073	-89.910667	50.542816
-55.162094	-92.098785	49.552837
-48.867619	-85.835495	50.848251
-42.909046	-93.19368	51.913189
-42.417702	-92.788231	52.196182
-50.346901	-88.617111	50.332893
-47.525387	-89.820976	50.268692
-49.499523	-88.055809	50.437263
-46.855839	-82.886971	52.676296
-43.29641	-94.158348	51.64642
-51.734367	-89.562943	49.864803
-45.015656	-88.015434	51.191593
-47.02261	-86.789619	50.841263
-50.611912	-85.640007	50.870567
-45.305267	-94.029449	50.742996
-44.234295	-84.931778	52.130756
-52.279667	-87.212074	50.549049
-49.486923	-89.468575	50.098442
-47.506123	-95.056519	50.052509
-47.907562	-86.585869	50.714073
-43.791039	-95.321861	51.427834
-52.84993	-89.224205	49.811695
-51.87183	-92.968987	49.582909
-51.066376	-95.706024	49.090126
-47.641895	-87.088333	50.661114
-46.176998	-92.033127	50.421513
-44.954739	-87.102959	51.315498
-42.697693	-91.682098	51.862877
-43.714264	-95.949509	51.519283
-48.215389	-91.029121	50.015991
-47.258018	-87.966637	50.588055
-43.419285	-91.368385	51.460678
-45.899761	-84.787903	51.973404
-53.526703	-91.381332	49.514366
-50.632084	-89.654808	49.980099
-45.100113	-89.908867	51.18383
-48.190266	-88.834785	50.310772
-45.128323	-90.926353	50.941051
-53.893917	-87.680527	50.168144
-46.896931	-98.531052	50.527557
-41.436016	-93.617744	53.29948
-46.923538	-83.372101	52.413036
-46.757118	-94.208626	50.243992
-45.240681	-92.079468	50.678871
-47.79134	-93.736954	49.929955
-51.512283	-86.020515	50.760956
-43.538357	-93.519753	51.557137
-53.088715	-85.269035	50.696911
-49.531883	-86.656441	50.708614
-47.444744	-85.733543	50.928829
-40.850506	-92.090988	53.498005
-42.447166	-93.597061	52.334034
-43.807587	-88.307106	51.286476
-45.986061	-98.187134	51.057476
-43.225471	-92.490608	51.659557
-46.0443	-86.583427	51.227009
-46.468109	-89.015541	50.663017
-41.387409	-92.007767	52.90538
-45.360008	-97.047607	51.214794
-45.899593	-89.97583	50.857822
-47.699963	-96.118416	50.014698
-46.521835	-86.251434	51.111061
-44.711842	-92.887337	50.907051
-50.05714	-93.660515	49.507412
-48.938416	-92.79586	49.737728
-52.16782	-84.62001	51.080284
-46.014729	-88.499077	50.90419
-44.356903	-96.18692	51.415649
-48.6758	-95.562149	49.611504
-53.435158	-88.621437	49.970387
-44.131844	-94.46949	51.262188
-51.854019	-91.226227	49.57996
-43.09063	-90.988579	51.571743
-54.005905	-89.410591	49.650536
-49.968594	-95.054443	49.19371
-46.480007	-95.727058	50.493092
-50.863258	-94.480812	49.368557
-51.506432	-94.188934	49.508465
-46.040306	-85.815117	51.511883
-43.979836	-87.212898	51.356396
-44.257687	-91.800545	51.104507
-51.531139	-88.505867	50.301434
-49.545334	-90.378166	49.893078
-41.78241	-90.97921	52.389786
-47.848869	-97.108612	49.846924
-48.263927	-87.641998	50.533653
-41.95536	-94.682045	53.091473
-42.359806	-90.192207	51.832474
-46.645302	-97.276703	50.599442
-44.580593	-90.052612	51.271202
-51.893349	-95.990776	49.1702
-48.608273	-89.522453	50.136208
-41.742668	-92.289513	52.620872
-50.244595	-91.454041	49.754173
-43.043453	-94.637833	51.737812
-50.657326	-93.42041	49.546787
-45.235874	-95.493004	50.990898
-44.580154	-86.014999	51.645996
-46.433037	-92.827881	50.288918
-47.761322	-90.622581	50.133266
-44.843899	-89.03727	51.316475
-46.649979	-96.436234	50.498142
-53.055195	-90.39975	49.516781
-48.670773	-93.984337	49.642506
-50.433792	-95.645874	49.120689
-41.148773	-93.055923	53.549366
-54.518002	-93.932228	49.414547
-35.878361	-84.066635	39.081528
-36.078114	-83.951897	39.076378
-36.079754	-83.725258	39.034855
-35.881641	-83.613358	38.998478
-35.681889	-83.728096	39.003624
-35.680248	-83.954742	39.045147
-35.878361	-84.066635	39.081528
-35.768272	-83.802361	40.459965
-35.951195	-83.688728	40.453674
-35.955936	-83.479393	40.415581
-35.771374	-83.374207	40.381516
-35.590248	-83.484848	40.387398
-35.586338	-83.691696	40.425102
-35.768272	-83.802361	40.459965
-35.658276	-83.53125	41.836685
-35.844852	-83.437241	41.834297
-35.844456	-83.226547	41.79554
-35.661175	-83.13073	41.763302
-35.480663	-83.231537	41.767422
-35.482483	-83.434471	41.804867
-35.658276	-83.53125	41.836685
-35.548096	-83.287231	43.218136
-35.723755	-83.177444	43.211979
-35.728344	-82.976402	43.175392
-35.551086	-82.874268	43.142471
-35.369827	-82.977539	43.146988
-35.365887	-83.184608	43.184734
-35.548096	-83.287231	43.218136
-35.437984	-83.033852	44.597878
-35.625683	-82.930656	44.593887
-35.624153	-82.719421	44.554943
-35.441002	-82.617035	44.521507
-35.258423	-82.723221	44.526451
-35.263885	-82.926369	44.564224
-35.437984	-83.033852	44.597878
-35.327873	-82.777954	45.977386
-35.515739	-82.677139	45.97385
-35.512203	-82.466843	45.934917
-35.330807	-82.373047	45.903198
-35.143143	-82.466682	45.905434
-35.138821	-82.68132	45.944538
-35.327873	-82.777954	45.977386
-35.218281	-82.557472	47.353512
-35.430355	-82.438812	47.348625
-35.424713	-82.202408	47.304726
-35.221684	-82.087685	47.267437
-35.006252	-82.199265	47.270752
-35.018311	-82.435852	47.315201
-35.218281	-82.557472	47.353512
-35.156483	-82.432938	47.388069
-35.194065	-82.377602	47.458378
-35.246193	-82.292336	47.469555
-35.287342	-82.218781	47.415028
-35.300991	-82.187119	47.323288
-35.285778	-82.203041	47.229156
-35.245296	-82.263809	47.165276
-35.195385	-82.345993	47.160057
-35.152252	-82.421829	47.204346
-35.138214	-82.454185	47.296581
-35.156483	-82.432938	47.388069
-34.118225	-81.804482	47.448978
-34.157558	-81.744926	47.505856
-34.206001	-81.666473	47.524277
-34.248219	-81.591835	47.476711
-34.260189	-81.562943	47.384846
-34.246033	-81.577232	47.291897
-34.204384	-81.640923	47.237965
-34.157246	-81.717964	47.227264
-34.118198	-81.787262	47.273937
-34.100513	-81.824921	47.358646
-34.118225	-81.804482	47.448978
-33.257534	-81.279572	47.825954
-33.310535	-81.237801	47.889725
-33.357994	-81.157921	47.887997
-33.386292	-81.081818	47.84753
-33.382496	-81.03109	47.768574
-33.343441	-81.032875	47.681423
-33.288242	-81.088875	47.632317
-33.237743	-81.163307	47.619534
-33.211117	-81.239807	47.664371
-33.221802	-81.280197	47.744835
-33.257534	-81.279572	47.825954
-32.521503	-80.84124	48.489113
-32.587406	-80.796204	48.532455
-32.638702	-80.723335	48.540642
-32.656086	-80.641441	48.50478
-32.628601	-80.587234	48.437393
-32.573467	-80.573303	48.366272
-32.507786	-80.618164	48.323059
-32.457455	-80.690933	48.315884
-32.443562	-80.769859	48.353649
-32.464741	-80.829376	48.417564
-32.521503	-80.84124	48.489113
-31.896509	-80.454384	49.395496
-31.970377	-80.424835	49.434212
-32.012268	-80.348709	49.431412
-32.03138	-80.266167	49.410198
-31.988506	-80.210358	49.357307
-31.923378	-80.196747	49.306633
-31.854858	-80.228012	49.272331
-31.800274	-80.294083	49.262169
-31.792566	-80.377098	49.291462
-31.827574	-80.44088	49.342243
-31.896509	-80.454384	49.395496
-31.36301	-80.133026	50.522797
-31.438164	-80.100052	50.549
-31.488312	-80.030983	50.553009
-31.485096	-79.951256	50.528667
-31.451233	-79.883644	50.493256
-31.378374	-79.86499	50.453365
-31.306702	-79.89859	50.428993
-31.260666	-79.964836	50.426121
-31.256615	-80.042397	50.4464
-31.293182	-80.106117	50.481979
-31.36301	-80.133026	50.522797
-30.908573	-79.847359	51.829464
-30.982224	-79.821854	51.849731
-31.030165	-79.756287	51.852642
-31.036715	-79.674927	51.837837
-30.992163	-79.609703	51.808651
-30.916954	-79.594818	51.779362
-30.841188	-79.615799	51.757416
-30.796984	-79.685005	51.756565
-30.795637	-79.763397	51.772552
-30.833633	-79.830788	51.799919
-30.908573	-79.847359	51.829464
-30.517176	-79.610565	53.284325
-30.593298	-79.588127	53.30117
-30.641346	-79.521294	53.303246
-30.632421	-79.443718	53.288239
-30.590963	-79.384476	53.267456
-30.522394	-79.35746	53.244614
-30.453579	-79.38871	53.231167
-30.40263	-79.446526	53.226849
-30.402849	-79.524254	53.239532
-30.449196	-79.581207	53.261261
-30.517176	-79.610565	53.284325
-30.173784	-79.39682	54.847534
-30.24003	-79.366455	54.858059
-30.289001	-79.311409	54.861519
-30.287586	-79.237038	54.851349
-30.246592	-79.177002	54.834385
-30.17712	-79.158577	54.816681
-30.104362	-79.175117	54.802891
-30.068222	-79.241417	54.803741
-30.063187	-79.313873	54.812241
-30.104	-79.374359	54.829227
-30.173784	-79.39682	54.847534
-29.862148	-79.210007	56.484634
-29.931173	-79.182045	56.49456
-29.970867	-79.121368	56.495148
-29.968962	-79.051422	56.486748
-29.933266	-78.990601	56.472961
-29.864702	-78.969414	56.457474
-29.794174	-78.989983	56.446411
-29.752903	-79.051842	56.44566
-29.757936	-79.122787	56.454769
-29.798927	-79.176292	56.468723
-29.862148	-79.210007	56.484634
-29.569016	-79.017052	58.141254
-29.636816	-79.003441	58.151791
-29.673454	-78.943077	58.151829
-29.668911	-78.876724	58.143944
-29.638	-78.816055	58.132
-29.571062	-78.794556	58.117867
-29.504635	-78.818588	58.108685
-29.462351	-78.875572	58.107288
-29.461952	-78.946342	58.114769
-29.504309	-79.000748	58.128067
-29.569016	-79.017052	58.141254
-21.738449	-72.22541	57.321167
-28.899942	-71.23214	58.70314
-25.296434	-82.24295	58.078304
-25.806726	-82.608322	58.320122
-29.306702	-70.195892	58.941635
-27.16197	-68.05748	59.167885
-31.237272	-71.367645	60.819576
-29.872646	-72.392525	59.183052
-29.60112	-71.494186	58.97599
-31.799063	-73.756706	60.144394
-18.720165	-78.425583	57.941135
-25.642494	-72.558388	57.9361
-23.627195	-69.631958	57.9095
-21.459492	-71.463165	57.259918
-22.618279	-73.946053	57.480522
-21.715603	-73.712669	57.449184
-26.287613	-68.253807	59.045708
-20.924835	-72.950783	57.388916
-20.084909	-77.77021	57.775993
-21.138565	-71.974854	57.225758
-18.215797	-81.050934	58.65131
-19.359243	-77.782661	57.802647
-20.282042	-77.65435	57.765743
-18.476709	-73.453827	58.080563
-17.106783	-73.370544	58.268085
-16.683861	-74.388954	58.307144
-19.235847	-72.339935	57.623135
-18.327326	-71.752701	57.671429
-16.131626	-74.029144	58.35405
-17.189095	-72.944504	58.23988
-18.374115	-72.518364	57.924473
-17.739069	-72.70816	58.132355
-17.838781	-72.0541	57.976604
-16.732916	-72.941048	58.055336
-29.661779	-73.067505	59.008957
-17.505871	-78.232307	58.060669
-21.741726	-70.589455	57.432522
-21.454683	-70.189171	57.361961
-22.763659	-68.956024	57.810635
-25.603848	-67.375069	58.875835
-26.47241	-74.215149	57.841011
-26.537107	-80.915321	58.103127
-27.344803	-80.791656	58.153378
-29.277596	-80.173134	58.00779
-26.18597	-68.074562	59.049145
-26.756142	-68.419075	59.132221
-22.413774	-69.510422	57.548973
-32.19154	-76.007187	59.781235
-31.46092	-76.372719	59.106388
-29.089359	-76.631775	58.239212
-28.239666	-76.42482	58.139721
-31.061426	-77.417641	58.530853
-28.694136	-77.926186	58.260605
-30.029894	-78.009689	58.225395
-29.931261	-77.616341	58.246201
-29.232708	-77.98835	58.23111
-24.132515	-82.636848	58.1115
-25.490971	-83.10611	58.33617
-25.703304	-84.010216	58.761173
-25.269711	-83.66774	58.369179
-27.311956	-81.706497	58.331974
-26.544188	-79.972511	58.048695
-26.718388	-78.63942	58.127434
-25.492802	-86.040741	59.713127
-22.673647	-72.051277	57.587849
-21.409468	-72.875633	57.383598
-29.356815	-70.990456	58.834202
-29.788073	-70.685989	59.127731
-30.255659	-71.385185	59.584373
-30.068617	-71.973175	59.35527
-30.695065	-70.744827	60.194336
-30.505518	-71.065079	60.014473
-30.724201	-71.2882	60.246918
-30.921055	-72.75206	59.900524
-30.898172	-73.292984	59.67522
-28.893906	-69.728867	58.971443
-22.392078	-70.540543	57.60445
-25.439724	-72.358208	57.936607
-25.863657	-73.281967	57.859444
-24.046499	-83.214432	58.167046
-23.025232	-82.850662	58.345127
-30.296268	-72.603874	59.456985
-30.204557	-76.560768	58.47435
-29.877064	-77.187668	58.279465
-29.668026	-76.97065	58.274357
-25.772415	-84.712036	59.046658
-16.258112	-77.832443	58.129696
-20.96121	-80.691429	58.414223
-26.288626	-83.7724	58.885895
-25.644932	-84.504196	58.866596
-26.11628	-83.194618	58.633804
-25.014082	-84.28698	58.252079
-25.823076	-85.092926	59.240223
-25.525185	-84.727524	58.877739
-20.696352	-69.825058	57.446251
-24.570677	-78.482475	57.694504
-24.505211	-84.046341	58.118191
-22.481974	-83.599297	58.498005
-23.666489	-85.05587	57.686848
-22.151407	-84.026024	58.558815
-23.501324	-84.353287	58.059986
-23.26029	-83.727371	58.293461
-23.58802	-83.7146	58.195866
-22.925222	-84.203102	58.344311
-25.279716	-85.849968	59.450584
-25.281111	-85.437134	59.071915
-24.570585	-86.088295	59.095051
-25.001282	-84.980438	58.488697
-24.758318	-85.455841	57.990246
-24.07	-85.160454	57.545353
-24.286554	-85.538643	57.388485
-24.67342	-84.920639	58.019714
-24.352276	-84.5793	57.986759
-23.85014	-84.706596	57.814022
-23.558508	-85.468681	57.229828
-23.019768	-85.534836	57.778999
-23.22196	-84.903984	57.920223
-21.53219	-85.044342	58.403927
-22.743792	-84.72963	58.245045
-22.03672	-84.738693	58.539276
-21.049204	-84.204735	58.747662
-27.625586	-71.396317	58.535347
-21.759905	-83.142349	58.604507
-27.575684	-84.731888	59.289597
-17.961981	-73.615219	58.15818
-20.640074	-80.972794	58.505058
-17.447102	-72.320755	57.917694
-17.897631	-71.92981	57.831268
-21.600426	-85.20195	58.632896
-29.557583	-81.203049	58.156906
-15.096201	-74.923973	58.602249
-26.600748	-85.913803	59.735683
-31.508852	-72.683968	60.540451
-27.371647	-68.938095	59.096729
-18.808626	-80.437653	58.540741
-15.214161	-75.613419	58.538902
-31.074175	-73.970879	59.529022
-17.806498	-75.113434	58.11356
-28.650307	-81.486198	58.218277
-20.803844	-70.713585	57.326454
-25.703682	-76.609222	57.777508
-23.459084	-75.312653	57.524414
-19.279486	-79.923439	58.401314
-28.066191	-68.927277	59.116585
-27.649303	-82.692001	58.631039
-26.052948	-80.670387	57.982269
-21.138721	-77.650398	57.726925
-30.392687	-74.594131	58.977531
-20.32596	-75.56012	57.772961
-21.55246	-74.943642	57.622765
-26.640707	-84.808395	59.294247
-28.105843	-80.55175	58.05545
-23.450171	-74.397171	57.5172
-23.995436	-74.273712	57.562954
-22.449718	-76.005814	57.623085
-24.547579	-79.170624	57.740147
-24.677847	-83.250893	58.157059
-24.60812	-75.575531	57.588123
-27.58919	-72.290688	58.397144
-28.245081	-72.898926	58.456371
-16.753857	-73.675766	58.344296
-28.979544	-77.143272	58.250523
-27.499586	-76.155571	58.03635
-26.554037	-84.358955	59.144474
-25.460733	-77.767929	57.787346
-15.387061	-76.106949	58.480896
-23.346819	-82.688255	58.284798
-29.598448	-73.694328	58.854519
-30.248188	-74.122215	59.051071
-21.310799	-79.630585	58.184479
-24.372467	-77.952705	57.649471
-22.341852	-80.190048	58.098686
-26.261923	-85.951355	59.756641
-29.016768	-72.616043	58.695648
-19.560799	-78.667992	57.99028
-27.562071	-79.806381	58.080357
-25.34013	-81.401817	57.986366
-21.398922	-83.096222	58.634613
-26.579105	-72.926048	58.053097
-28.922501	-83.305748	58.774685
-19.302504	-81.453735	58.704983
-22.155502	-78.552849	57.812271
-23.858122	-71.94384	57.770542
-24.33411	-81.721146	57.999596
-28.304773	-71.323883	58.626194
-18.321714	-79.170029	58.122608
-19.028555	-74.767029	57.938171
-19.582594	-71.522018	57.417095
-24.576391	-81.115082	57.923561
-25.718081	-75.286301	57.717171
-27.741524	-80.851501	58.144444
-29.969547	-75.400414	58.649826
-28.350649	-70.60199	58.759174
-23.428732	-76.628098	57.582428
-24.912836	-80.065155	57.828369
-29.103617	-75.813828	58.31216
-27.022984	-83.636749	58.909378
-17.294664	-76.754959	58.069458
-20.820534	-78.453362	57.913525
-27.286806	-77.646622	58.221626
-23.722523	-79.153984	57.756474
-27.110712	-76.471466	58.023987
-17.358616	-81.066246	58.619804
-24.31395	-67.926598	58.435665
-31.499197	-73.128319	60.16869
-26.087261	-85.388855	59.505882
-24.822393	-72.846466	57.782246
-26.82291	-75.148796	57.830276
-23.635696	-73.478256	57.593914
-20.323971	-82.749062	58.711987
-28.78574	-73.367912	58.596382
-18.600864	-83.771484	58.892185
-22.491169	-81.810379	58.313465
-24.980091	-82.660095	58.092857
-32.344074	-74.825836	60.172153
-30.16622	-73.206459	59.270008
-28.918434	-79.350761	57.974075
-25.481121	-68.253212	58.834827
-29.256575	-74.519058	58.579021
-26.541782	-81.555954	58.218895
-25.721478	-78.785217	57.834095
-31.62714	-74.945778	59.599285
-26.327124	-69.500854	58.8111
-26.31222	-77.636368	58.01223
-23.531586	-70.746155	57.84029
-26.010391	-81.980003	58.156776
-27.389833	-74.180428	58.04314
-20.998676	-73.780823	57.549492
-22.389986	-74.665932	57.53228
-19.778873	-84.438606	59.101906
-26.330441	-79.341965	57.982819
-27.581554	-70.391983	58.783226
-22.401043	-71.463936	57.533688
-17.748905	-79.930115	58.373287
-27.966959	-72.326836	58.44453
-19.212198	-76.760666	57.808334
-29.532852	-76.220222	58.347378
-16.965971	-79.069206	58.177483
-20.904911	-72.158562	57.275467
-25.042168	-71.091927	58.117798
-19.982969	-72.918602	57.606518
-19.311676	-73.327751	57.869114
-26.675442	-82.450554	58.486492
-28.840801	-80.625549	58.009418
-28.044657	-75.387856	58.10194
-19.977011	-79.880478	58.370708
-21.962908	-77.506416	57.655247
-31.17491	-76.137466	59.019382
-23.236652	-69.618919	57.749081
-23.796051	-80.539482	57.938957
-30.770735	-71.952927	60.109005
-30.485533	-77.06945	58.444668
-24.730692	-69.340424	58.379704
-27.877657	-77.432205	58.22995
-18.637407	-71.286942	57.688297
-23.150686	-78.401024	57.688412
-31.1425	-74.645203	59.365883
-21.043858	-76.340324	57.70953
-29.275635	-72.045341	58.783936
-20.351028	-74.120811	57.693554
-26.569122	-71.256081	58.423706
-28.333082	-82.075714	58.369263
-25.327524	-74.395981	57.672779
-24.003416	-77.052284	57.598461
-27.684803	-78.624916	58.260612
-24.784353	-70.297935	58.206554
-17.9203	-77.829666	57.911434
-22.561481	-73.271843	57.456429
-20.309063	-71.526192	57.32476
-31.926464	-73.754898	60.3563
-15.914558	-73.93251	58.328789
-35.217506	-82.540985	47.25732
-35.414639	-82.428329	47.26532
-35.417133	-82.207344	47.318001
-35.222496	-82.099014	47.362682
-35.025364	-82.211662	47.354683
-35.022869	-82.432655	47.302002
-35.217506	-82.540985	47.25732
-35.350498	-82.862518	48.639847
-35.526691	-82.747292	48.650478
-35.528137	-82.550407	48.697487
-35.355087	-82.455811	48.736801
-35.176079	-82.552147	48.730965
-35.173717	-82.752945	48.683105
-35.350498	-82.862518	48.639847
-35.484478	-83.180008	50.033436
-35.669987	-83.085419	50.038227
-35.677586	-82.874321	50.088047
-35.488979	-82.781158	50.128513
-35.308643	-82.8843	50.121178
-35.306156	-83.086578	50.072975
-35.484478	-83.180008	50.033436
-35.61808	-83.528976	51.419277
-35.792686	-83.412041	51.43047
-35.806007	-83.210175	51.477528
-35.622784	-83.112366	51.518593
-35.434708	-83.212799	51.512646
-35.438271	-83.420319	51.462608
-35.61808	-83.528976	51.419277
-35.750965	-83.854057	52.800247
-35.932373	-83.746254	52.808598
-35.933117	-83.543839	52.856998
-35.755707	-83.434013	52.900379
-35.566177	-83.542442	52.892658
-35.565449	-83.753944	52.842079
-35.750965	-83.854057	52.800247
-35.884792	-84.185265	54.190559
-36.072273	-84.082497	54.197121
-36.064873	-83.877861	54.246841
-35.889427	-83.774582	54.28846
-35.713356	-83.882729	54.279514
-35.704807	-84.083618	54.232227
-35.884792	-84.185265	54.190559
-36.017185	-84.559799	55.560455
-36.236645	-84.430573	55.570271
-36.237305	-84.185822	55.628822
-36.022808	-84.06179	55.679173
-35.797985	-84.186424	55.670967
-35.810631	-84.429642	55.611507
-36.017185	-84.559799	55.560455
-35.967922	-84.44561	55.543869
-36.018211	-84.385612	55.482662
-36.068005	-84.302536	55.467026
-36.100056	-84.219894	55.512337
-36.097969	-84.177223	55.600628
-36.071884	-84.174904	55.695843
-36.021854	-84.231857	55.761917
-35.971268	-84.317574	55.775318
-35.944141	-84.395386	55.722038
-35.944523	-84.438545	55.63876
-35.967922	-84.44561	55.543869
-36.974033	-84.980125	55.838058
-37.01992	-84.928726	55.77586
-37.067829	-84.848984	55.760448
-37.094505	-84.774155	55.80965
-37.097698	-84.726639	55.888752
-37.07024	-84.729622	55.978699
-37.023308	-84.785774	56.035503
-36.975746	-84.863304	56.053921
-36.942696	-84.945023	56.013832
-36.946381	-84.984344	55.926353
-36.974033	-84.980125	55.838058
-37.844654	-85.456902	56.366077
-37.902924	-85.407646	56.314575
-37.94902	-85.331963	56.30666
-37.96954	-85.253769	56.342922
-37.956074	-85.199509	56.413509
-37.912235	-85.189186	56.494614
-37.854073	-85.239861	56.544662
-37.803787	-85.314201	56.56065
-37.782066	-85.396805	56.522415
-37.802814	-85.443726	56.446449
-37.844654	-85.456902	56.366077
-38.588181	-85.861198	57.108963
-38.657673	-85.821823	57.06105
-38.709	-85.744629	57.051838
-38.718193	-85.66095	57.088188
-38.688709	-85.602753	57.149273
-38.630905	-85.584999	57.216606
-38.562305	-85.623596	57.26405
-38.51738	-85.701164	57.266674
-38.505703	-85.780716	57.235043
-38.528713	-85.844437	57.177418
-38.588181	-85.861198	57.108963
-39.224857	-86.193428	58.050137
-39.298069	-86.16832	58.009861
-39.342537	-86.092972	58.007572
-39.352142	-86.011261	58.031219
-39.31189	-85.954559	58.07938
-39.24926	-85.927528	58.131733
-39.175774	-85.96035	58.16935
-39.13232	-86.035446	58.171043
-39.117775	-86.118401	58.150276
-39.159607	-86.176353	58.10059
-39.224857	-86.193428	58.050137
-39.756203	-86.483688	59.134518
-39.827694	-86.450638	59.108356
-39.878391	-86.3853	59.100983
-39.880482	-86.304329	59.121563
-39.839851	-86.242432	59.157959
-39.770554	-86.221642	59.197414
-39.696857	-86.248177	59.226395
-39.646332	-86.316528	59.23288
-39.639576	-86.400894	59.213676
-39.687222	-86.459824	59.174641
-39.756203	-86.483688	59.134518
-40.207439	-86.729324	60.348873
-40.278206	-86.693558	60.329842
-40.325336	-86.630714	60.325066
-40.328152	-86.552711	60.339813
-40.287991	-86.488892	60.367645
-40.216473	-86.46212	60.39962
-40.144024	-86.495567	60.419746
-40.097038	-86.560417	60.424065
-40.090008	-86.641022	60.410355
-40.134739	-86.704369	60.38092
-40.207439	-86.729324	60.348873
-40.598671	-86.929222	61.681709
-40.672405	-86.910378	61.663074
-40.719528	-86.845253	61.659668
-40.715061	-86.767822	61.673374
-40.670658	-86.711372	61.695454
-40.604	-86.686478	61.719009
-40.528847	-86.703857	61.738297
-40.481861	-86.770607	61.741402
-40.483269	-86.849968	61.728283
-40.527924	-86.910576	61.705467
-40.598671	-86.929222	61.681709
-40.938095	-87.119133	63.076824
-41.008167	-87.089516	63.063713
-41.056236	-87.029709	63.059952
-41.054611	-86.953255	63.070488
-41.010803	-86.89447	63.088936
-40.94191	-86.871078	63.108791
-40.870571	-86.894241	63.12307
-40.831726	-86.95845	63.124001
-40.824032	-87.032898	63.115997
-40.870079	-87.090065	63.097221
-40.938095	-87.119133	63.076824
-41.24633	-87.275711	64.525337
-41.309803	-87.248116	64.51503
-41.356876	-87.195442	64.511124
-41.356422	-87.123558	64.519562
-41.311722	-87.071815	64.535088
-41.249023	-87.049683	64.551003
-41.179985	-87.065178	64.563896
-41.1385	-87.125748	64.565697
-41.139053	-87.197624	64.557236
-41.17971	-87.25489	64.541931
-41.24633	-87.275711	64.525337
-41.538765	-87.438477	65.997414
-41.60157	-87.406502	65.988403
-41.642185	-87.352684	65.98616
-41.643929	-87.28479	65.993172
-41.608891	-87.224548	66.00666
-41.541237	-87.201424	66.022598
-41.480091	-87.235825	66.031021
-41.441147	-87.288376	66.033066
-41.435043	-87.355553	66.027
-41.474239	-87.41111	66.013199
-41.538765	-87.438477	65.997414
-49.067841	-93.816353	67.709183
-41.95499	-94.754807	67.245972
-45.611984	-84.037369	66.825478
-45.072502	-83.669502	66.897369
-41.501144	-95.751747	67.437202
-43.445446	-97.800018	68.344582
-39.212048	-94.499176	68.629066
-40.926029	-93.600304	67.369072
-41.2267	-94.487221	67.305328
-38.876892	-92.223	67.687057
-51.811081	-87.705788	68.638908
-45.233688	-93.485489	67.266624
-47.113411	-96.319984	67.957169
-49.339485	-94.560616	67.775108
-48.213482	-92.137131	67.516266
-49.07024	-92.358406	67.733521
-44.30265	-97.609131	68.439758
-49.824078	-93.097588	67.931168
-50.560879	-88.368057	68.179695
-49.655403	-94.061516	67.789978
-52.12896	-85.09478	69.255699
-51.238205	-88.347473	68.389381
-50.376621	-88.483437	68.127602
-51.959522	-92.537758	69.172737
-53.202145	-92.593544	69.704903
-53.600117	-91.594818	69.779976
-51.350697	-93.66124	68.624924
-52.189377	-94.221748	68.942772
-54.105385	-91.937111	69.989876
-53.127876	-93.011299	69.686531
-52.087585	-93.458893	69.11628
-52.634785	-93.253944	69.461044
-52.574635	-93.902748	69.333923
-53.605015	-93.02314	69.629868
-41.175461	-92.952705	67.213058
-52.923378	-87.874802	69.074905
-49.021347	-95.402596	67.925087
-49.306301	-95.794777	67.959534
-47.946495	-96.977394	68.131241
-44.982574	-98.470642	68.515015
-44.490829	-91.885475	66.851616
-44.424038	-85.340446	66.62262
-43.648716	-85.464867	66.471886
-41.858398	-86.095085	65.883331
-44.395947	-97.782593	68.481247
-43.840405	-97.446472	68.390022
-48.348248	-96.451996	67.936691
-38.620316	-90.058922	67.091171
-39.484844	-89.742348	66.618416
-41.94434	-89.527687	66.391571
-42.768814	-89.728371	66.529388
-40.01807	-88.760101	66.107864
-42.323238	-88.261536	66.424049
