ply
format ascii 1.0
comment Author: CloudCompare (TELECOM PARISTECH/EDF R&D)
obj_info Generated by CloudCompare!
element vertex 1234
property float x
property float y
property float z
property uchar red
property uchar green
property uchar blue
end_header
0.358312 -0.799431 -12.5849 29 22 16 
-1.70869 -1.54543 -11.6999 106 97 64 
-0.592689 -1.16843 -12.6589 60 54 54 
-0.313689 -2.07043 -13.4499 49 24 27 
0.871311 -0.731431 -12.5589 52 23 27 
0.0853115 -2.04243 -12.9499 55 23 28 
-0.00368851 -1.03343 -12.2459 87 117 47 
0.184311 -0.078431 -12.5639 30 15 18 
0.835311 -1.81243 -12.5739 87 79 77 
-0.671688 -2.00943 -13.0949 50 20 22 
-0.642689 -2.06743 -13.0909 49 18 24 
-1.02069 -0.929431 -12.6419 81 73 70 
-0.742689 -1.40143 -12.6389 128 114 111 
-1.04669 -0.842431 -13.0649 29 17 19 
0.677311 -1.91643 -12.7149 61 25 29 
-0.455689 -0.724431 -9.74593 86 100 74 
0.223311 -1.92243 -13.4809 55 26 30 
-0.750688 -0.444431 -12.6209 122 111 107 
0.304311 0.112569 -10.2519 163 186 178 
-0.236689 -0.775431 -11.3399 141 150 119 
1.03131 -0.372431 -10.7859 47 63 27 
-1.06069 -0.820431 -13.0359 30 18 20 
-0.873689 -1.91943 -12.6109 41 22 24 
-0.317688 -1.46943 -11.9739 53 66 36 
0.715311 -0.681431 -11.2279 78 95 59 
0.267311 -0.064431 -12.5689 36 20 21 
-0.496689 -2.15643 -13.0439 56 21 25 
0.551311 -1.81843 -13.5089 65 34 39 
1.49331 0.303569 -10.1759 171 174 167 
-0.545689 -1.29643 -12.6859 150 132 130 
-0.799689 -1.95043 -12.8109 48 21 26 
-0.450689 -0.996431 -12.6369 40 36 35 
0.0783115 -0.955431 -11.4629 64 71 40 
0.257311 -0.218431 -10.5989 68 85 69 
0.558312 -1.84943 -13.1929 59 27 32 
1.21631 -0.118431 -10.4949 84 100 73 
0.320311 0.026569 -10.3179 123 154 139 
-0.969689 -1.57543 -12.5449 108 78 90 
-0.805689 -1.74743 -13.0019 62 19 26 
0.542311 -0.604431 -12.5999 48 39 34 
0.231312 0.188569 -10.2159 161 182 173 
-0.922688 -1.47243 -12.6399 76 73 68 
0.505311 -1.36743 -10.2409 169 165 156 
-0.0106885 -0.320431 -13.2009 47 25 28 
0.177311 -0.755431 -11.6289 54 71 39 
-0.406689 -0.272431 -12.6519 42 22 24 
0.423312 0.395569 -10.1999 159 158 156 
0.970312 -1.08843 -12.5529 53 26 31 
-0.929689 -1.69243 -12.7009 59 20 23 
-0.253689 -1.29343 -12.3419 85 101 88 
0.388312 0.742569 -10.1979 110 134 118 
-0.0476885 -1.62743 -12.5619 110 97 89 
0.789311 -0.725431 -12.8729 53 26 31 
0.238311 -0.277431 -13.4599 55 33 36 
1.33931 0.159569 -12.5009 186 124 125 
-0.0586885 -0.393431 -13.5299 46 26 27 
-0.428688 -0.657431 -10.1159 57 78 47 
0.205311 -0.045431 -10.3339 121 145 97 
0.475311 -0.178431 -13.0649 44 22 25 
0.461311 -1.95343 -12.6819 93 88 84 
0.268312 -1.22743 -10.9739 71 95 45 
-0.617689 -2.22643 -12.7399 46 20 23 
-0.979689 -1.42643 -12.8389 48 18 20 
0.0773115 -0.430431 -10.9299 81 88 70 
-0.250688 -0.720431 -12.6159 85 74 68 
-0.830689 -0.541431 -13.1069 42 23 25 
-0.774688 -1.70743 -13.1369 66 23 30 
-0.233689 -0.952431 -11.9709 58 80 31 
-0.687689 -0.461431 -12.9899 35 21 21 
-0.715689 -2.01843 -12.6389 135 135 127 
0.590311 -1.83843 -13.2059 59 29 31 
0.161311 -1.97043 -13.2899 57 27 29 
0.0103115 -0.238431 -12.5609 70 63 57 
-0.836689 -0.403431 -12.6769 75 34 42 
0.555312 -1.57943 -9.94793 68 90 54 
-0.986688 -1.49143 -12.7459 46 17 21 
0.994312 -1.37943 -12.7029 59 30 35 
-0.218689 -1.28043 -12.1819 109 114 94 
-1.00369 -0.782431 -13.2959 25 16 17 
-0.809689 -0.937431 -12.6789 103 92 88 
0.420311 -0.733431 -12.3899 133 154 139 
0.00131149 -2.14743 -12.5259 53 16 23 
0.248311 -2.02343 -12.5929 26 24 27 
-0.234689 -1.54843 -11.8879 68 101 82 
1.01131 -1.81043 -12.5159 50 30 32 
0.0773115 -0.957431 -11.4709 73 83 56 
0.210311 -1.51643 -12.5979 109 100 93 
-0.512689 -2.08043 -11.8669 129 140 124 
-0.130689 -0.321431 -13.0749 34 18 19 
-0.855689 -0.598431 -13.4019 39 20 22 
-0.0566885 -0.522431 -12.5819 86 81 77 
-0.911689 -1.14043 -13.2949 38 18 20 
0.539311 -0.372431 -10.8709 74 61 55 
0.903311 -1.45143 -12.5209 142 133 134 
-2.12069 -1.82143 -11.8239 71 69 57 
-1.04569 -1.31443 -12.5589 58 37 44 
0.742311 -0.706431 -12.5619 117 110 102 
0.673311 -1.06243 -12.6099 143 136 128 
-0.351689 -0.938431 -12.6029 96 87 82 
-1.06169 -0.793431 -12.6619 94 83 79 
-0.629689 -2.21543 -12.7829 46 20 23 
-1.93769 -1.74543 -11.8519 100 111 95 
0.242311 -1.21343 -11.3469 70 91 34 
-0.178689 -0.905431 -12.5789 57 52 48 
-0.187688 -2.05943 -13.2369 52 23 27 
-0.792688 -0.421431 -12.5939 27 26 31 
-1.05969 -1.05843 -12.8929 24 16 14 
1.27331 0.112569 -10.3179 215 209 209 
-0.268688 -2.05943 -13.4719 55 26 30 
-0.343689 -1.37743 -12.2759 124 144 133 
-1.16069 -1.36643 -11.6839 144 165 158 
-0.298689 -0.334431 -12.9439 36 20 21 
-0.0886885 -1.02043 -12.1609 68 87 41 
0.811311 -0.919431 -13.1489 188 155 182 
-0.889688 -1.52443 -12.9889 58 22 26 
-0.768688 -1.59943 -12.6279 112 102 93 
-1.10369 -0.643431 -12.8739 41 20 25 
-0.455689 -1.22943 -12.6709 77 64 58 
0.202311 -1.21443 -11.7359 62 80 42 
-0.987688 -0.746431 -13.4169 40 21 23 
0.0623115 -2.09343 -12.5009 84 88 87 
-0.780689 -1.67343 -13.1529 63 22 26 
0.483312 -1.66743 -12.6399 87 77 68 
-0.129689 -1.36543 -12.1099 118 147 125 
-0.273688 -0.802431 -11.4139 51 68 32 
-0.198689 -1.07543 -12.3479 78 83 61 
0.376311 -0.971431 -11.6209 90 94 44 
-0.968688 -0.861431 -13.4429 26 16 15 
0.618311 -0.212431 -12.8489 49 24 28 
-0.356688 -2.13743 -12.5949 110 106 97 
0.229311 -0.252431 -13.2669 66 37 41 
0.306311 -1.27643 -10.6369 72 90 50 
0.544311 -0.283431 -13.2349 46 23 29 
-0.431689 -0.679431 -9.93593 99 116 97 
-1.00169 -0.584431 -12.9969 40 19 24 
-0.807689 -1.23143 -12.6529 36 30 30 
0.908311 -1.20443 -13.1729 84 59 99 
-2.62769 -2.22043 -11.8919 199 180 176 
0.415311 -0.072431 -12.6519 35 19 20 
1.09031 -1.54543 -12.4889 68 32 42 
-2.01069 -1.73343 -11.7819 52 60 37 
-0.541689 -1.21743 -12.6859 96 86 84 
0.967312 -1.06943 -12.5519 53 26 31 
-0.948689 -0.611431 -13.1589 44 24 26 
0.0803115 -0.679431 -12.5549 74 71 66 
-0.200689 -2.03943 -13.4469 56 26 28 
-0.129689 -0.375431 -13.3029 42 22 23 
1.30631 0.059569 -12.4989 110 114 89 
-0.890688 -1.16243 -13.3429 39 20 24 
0.456311 0.341569 -10.1739 155 156 151 
0.697312 -1.80843 -13.1319 54 23 28 
0.533311 -2.00143 -12.5459 100 33 40 
-0.0756885 -2.04143 -13.1769 53 22 27 
-0.740689 -1.76443 -13.1769 69 24 31 
-0.263689 -1.49043 -11.9379 86 113 94 
0.722311 -0.180431 -10.6179 99 107 94 
-0.460689 -1.05443 -12.6489 23 22 20 
0.535312 -0.271431 -13.2409 46 23 29 
-0.370688 -2.24943 -12.5119 118 114 113 
-1.10669 -0.731431 -12.9549 41 21 23 
-1.02369 -1.34243 -11.6599 151 175 162 
-0.311689 -2.09243 -13.2219 53 24 26 
0.118311 -0.423431 -10.8339 101 112 96 
-0.899688 -1.80143 -10.9569 103 124 65 
0.530311 -1.95043 -12.5489 24 28 31 
0.647312 -1.11243 -12.6219 128 124 115 
0.979311 -1.16643 -12.5789 52 27 31 
1.00031 -1.67143 -12.8679 56 27 31 
-0.498689 -1.13043 -12.6759 56 51 48 
-0.356688 -1.39743 -12.6219 80 69 63 
-0.0256885 -1.21443 -12.3309 73 88 45 
-1.96969 -1.75343 -11.8299 86 100 83 
-0.548689 -0.904431 -12.6499 69 59 57 
0.532311 -1.20843 -12.6179 97 90 82 
0.133311 -0.107431 -12.5059 156 124 135 
0.883312 -0.926431 -12.6989 56 27 32 
-0.150689 -1.68443 -12.6039 72 65 59 
-0.649688 -1.84343 -13.4769 77 24 30 
-0.656689 -1.98143 -13.2179 50 19 24 
0.345311 -1.30143 -12.6329 115 109 97 
0.900311 -0.965431 -12.4789 107 99 110 
0.205311 -0.175431 -10.4859 86 102 53 
-0.730689 -2.22143 -12.5509 48 36 40 
-0.972688 -1.62743 -12.6399 46 21 24 
-0.361688 -2.08243 -13.3859 50 25 28 
-0.125689 -2.08843 -13.0059 53 22 27 
0.571311 -1.98743 -12.5789 93 33 41 
-1.02069 -0.520431 -12.6209 22 20 21 
-1.00169 -0.690431 -13.2399 31 15 16 
-0.779688 -0.674431 -12.6689 56 45 41 
0.101311 -0.134431 -12.6669 40 24 25 
0.448312 -1.97443 -12.4969 24 32 34 
0.496311 -1.86243 -13.2789 60 30 32 
0.129311 -1.20043 -12.0199 58 70 34 
-0.348689 -0.426431 -13.2319 34 20 20 
-0.660689 -1.77743 -12.6359 114 104 95 
-0.496689 -0.378431 -12.9099 27 17 18 
0.183311 -0.900431 -12.3399 155 166 149 
0.491311 -0.191431 -12.4999 96 89 83 
-0.773688 -1.69143 -11.2289 64 74 40 
-0.550689 -1.98243 -12.6469 113 105 94 
-0.708688 -1.66343 -11.2399 119 144 115 
0.354311 -1.96643 -12.6409 108 100 97 
0.764311 -0.391431 -12.6959 56 30 33 
-0.0826885 -0.989431 -12.1079 69 85 46 
-0.826689 -1.72543 -11.1429 82 93 59 
-0.232689 -0.319431 -12.9539 36 20 21 
0.511311 -1.06743 -12.6379 104 97 91 
0.456311 -1.36143 -10.2309 111 128 110 
-0.00868851 -0.967431 -11.3779 127 122 100 
-0.633689 -1.61843 -11.4329 67 79 39 
0.836312 -1.65243 -12.5339 161 150 148 
-0.963688 -1.84143 -10.7829 154 183 137 
0.221311 -0.100431 -10.4209 98 114 65 
0.360311 -0.094431 -12.7579 35 21 21 
0.229311 -0.253431 -10.6739 66 80 57 
-1.11469 -0.816431 -12.8969 30 18 20 
-0.875688 -0.491431 -12.6369 96 89 81 
0.412311 0.725569 -10.1749 115 139 125 
1.04331 0.347569 -9.91093 149 163 148 
-0.903688 -1.84743 -10.8609 123 152 108 
0.852311 -0.542431 -12.5129 60 28 31 
0.562311 -1.93543 -12.7819 53 22 28 
1.05431 -1.78643 -12.7079 62 31 36 
0.983311 -1.76743 -12.5089 83 77 77 
0.548311 -0.649431 -12.4169 133 154 135 
0.360311 -0.837431 -12.5889 48 39 32 
-0.993689 -1.34443 -12.8639 52 20 25 
-0.731688 -1.74143 -13.2489 66 25 29 
-0.810688 -0.452431 -12.8539 41 22 24 
-0.440689 -0.669431 -9.97593 93 105 85 
-0.0466885 -1.25643 -12.5409 113 110 101 
-0.806688 -1.22243 -11.6929 144 154 145 
-0.986688 -1.01743 -12.6219 102 88 87 
0.653311 -0.333431 -12.8799 50 28 31 
-0.452689 -2.25643 -12.6349 75 36 41 
-0.270689 -0.814431 -11.3809 59 84 42 
0.774311 -0.876431 -13.4279 102 76 124 
0.982311 -1.27743 -12.6549 59 28 33 
-0.217689 -1.19443 -12.2639 65 83 43 
1.06331 -1.77543 -12.4979 68 54 54 
1.01431 -1.27343 -12.4829 109 79 87 
-0.844689 -1.64343 -12.6119 103 94 89 
-0.0336885 -2.00143 -13.3899 51 25 28 
0.906312 -1.06843 -12.5139 36 36 36 
-0.697689 -1.17243 -11.6959 117 150 133 
-0.999689 -1.31943 -12.5919 16 17 19 
-1.03569 -1.15743 -12.8909 38 16 18 
-0.700688 -2.18143 -12.7119 39 17 20 
0.246311 -1.21543 -11.1619 65 79 26 
0.0813115 -0.144431 -12.6799 37 23 23 
-1.07569 -0.599431 -12.8349 36 17 19 
-0.143688 -1.71243 -11.7429 53 75 36 
0.149311 -0.774431 -11.6689 58 71 45 
0.587312 -0.070431 -12.5209 65 49 59 
-0.612688 -2.21543 -12.5839 115 114 109 
0.769311 -0.830431 -13.3229 195 170 192 
-0.744689 -0.572431 -13.4509 62 30 35 
-2.04769 -1.77943 -11.8609 79 66 50 
0.599311 -0.299431 -10.7879 64 82 56 
-1.19269 -0.885431 -12.5479 132 102 114 
-0.825688 -1.51143 -13.1829 59 20 25 
0.783311 -0.591431 -12.7469 55 28 35 
-0.226689 -1.53443 -12.5929 87 78 71 
1.08031 -1.49943 -12.5029 73 30 37 
-0.612688 -2.01143 -13.3789 53 16 23 
0.213311 -0.734431 -12.5619 85 76 71 
-0.716689 -0.339431 -12.6049 70 31 36 
-0.929689 -1.26543 -11.6679 140 164 150 
-0.989689 -1.41943 -12.8089 48 18 20 
0.594311 -0.324431 -13.0969 54 32 35 
0.868311 -1.08143 -10.0679 103 125 104 
0.0513115 -2.58043 -10.9569 137 139 115 
0.819311 -1.66443 -12.5369 154 144 142 
0.00431149 -1.98043 -13.4699 52 23 27 
-2.45769 -2.02343 -11.8849 119 132 122 
-0.661689 -1.95043 -13.2629 57 22 26 
-0.668689 -0.526431 -13.2599 39 20 22 
-1.17769 -0.632431 -12.6289 42 17 20 
1.01931 -1.54943 -12.7689 55 30 33 
0.302311 -1.65043 -12.5799 128 119 114 
-1.36769 -2.00643 -10.4059 102 105 88 
0.908311 -0.275431 -12.5309 94 66 65 
0.182311 -2.92543 -10.5009 99 106 98 
0.238311 -0.162431 -12.5149 98 93 90 
-1.25369 -1.92343 -10.4519 101 124 96 
0.107311 -2.10443 -12.6169 57 26 31 
-0.715689 -1.66443 -11.3289 59 76 34 
0.798311 -0.605431 -11.1219 63 79 43 
0.679312 -0.802431 -12.5749 78 71 65 
-0.219689 -0.486431 -12.6049 119 108 102 
0.351312 -0.232431 -13.3739 50 30 31 
-0.514688 -0.354431 -12.5579 15 26 20 
0.656312 1.19957 -10.3319 69 71 57 
-1.99669 -1.72443 -11.7779 49 59 34 
1.07031 -1.72643 -12.5209 41 23 23 
-0.217689 -1.54543 -12.0409 81 84 75 
0.334311 -1.31043 -10.4199 106 119 75 
-0.495688 -1.78343 -12.6639 103 94 87 
1.00731 -1.34543 -12.4719 93 83 94 
0.539311 -1.47143 -10.1089 128 148 120 
-0.131689 -0.244431 -12.8119 37 21 22 
0.157311 -0.342431 -10.8029 59 75 49 
-1.27869 -2.46043 -12.0639 201 138 146 
-0.987688 -0.762431 -12.7049 109 100 95 
0.581311 -0.127431 -12.7399 49 24 28 
-0.345689 -0.752431 -10.8509 66 82 33 
-0.435688 -0.502431 -13.5019 43 24 28 
-0.305689 -0.354431 -12.9999 33 19 19 
0.913311 -1.33443 -13.3739 62 40 43 
0.946311 -0.464431 -10.8989 43 63 36 
-0.934689 -0.436431 -12.5479 101 97 98 
-0.819688 -1.21843 -11.6939 144 156 146 
1.00331 -1.34643 -12.6329 65 36 40 
0.225311 -2.02443 -12.8589 52 23 27 
-0.197689 -2.14743 -12.5909 67 68 63 
0.640311 -0.124431 -12.5149 65 48 58 
-1.03869 -1.15543 -12.8829 39 17 19 
0.987311 -1.32243 -12.6749 59 30 34 
-0.708688 -0.869431 -12.6559 113 102 96 
0.258311 -1.96643 -12.6429 76 65 63 
-0.261689 -2.17943 -12.7459 57 26 31 
0.289311 -1.27343 -10.9009 99 109 75 
-0.510688 -1.93043 -12.6389 103 93 83 
0.766311 -1.04043 -10.2969 157 153 150 
-1.19369 -0.868431 -12.6079 68 23 28 
0.603311 1.09857 -10.2589 65 80 51 
-2.74669 -2.23943 -11.9399 160 163 156 
-0.800689 -1.48743 -13.2859 59 20 23 
-1.00469 -1.30543 -12.5899 15 16 20 
-0.253689 -0.389431 -13.1889 33 17 18 
0.396311 0.291569 -10.2369 158 159 154 
0.250311 -1.95443 -13.2359 60 29 34 
-1.58969 -2.03043 -10.1949 64 70 42 
-1.27869 -2.41343 -12.0959 192 151 149 
-0.274689 -1.35743 -12.3059 76 94 80 
-0.0876885 -2.13343 -12.7489 58 26 31 
-0.516689 -2.12843 -13.1859 61 25 29 
0.338311 -0.174431 -13.0269 49 29 31 
0.159311 -0.300431 -10.6049 73 90 46 
-0.212689 -1.19543 -12.3179 76 98 49 
1.06531 -1.60843 -12.5869 55 30 33 
-0.150689 -1.63643 -12.5969 75 66 59 
0.469312 -0.473431 -12.5759 135 153 137 
-0.324688 -0.765431 -10.9929 58 74 29 
-0.234689 -0.819431 -11.3849 108 135 90 
-0.380689 -2.15443 -12.9769 69 29 37 
-0.706689 -1.72043 -13.3629 71 24 30 
0.886311 -1.22543 -13.4299 168 131 164 
-1.12969 -1.11143 -12.6279 51 20 25 
0.489311 -0.096431 -12.8129 50 25 29 
-0.0246885 -2.11743 -11.4139 94 115 72 
-0.184689 -1.54643 -12.0449 84 105 88 
0.258311 -0.268431 -13.4449 54 34 36 
0.482311 -1.90743 -13.0099 54 23 28 
-0.567689 -2.19043 -12.9409 44 13 18 
-0.877689 -1.42743 -13.1089 60 21 24 
0.459311 -1.32543 -12.6529 110 106 95 
0.278311 0.184569 -10.2639 103 120 88 
-0.776689 -1.66643 -13.1719 64 25 30 
0.0233115 -1.18743 -12.4479 39 48 21 
1.16331 -0.097431 -12.5069 84 83 65 
-0.656689 -1.95243 -13.2799 53 18 22 
-0.993689 -1.56843 -12.6369 43 17 20 
0.588311 -0.140431 -12.4959 38 39 41 
-1.21369 -1.94143 -10.5279 114 122 99 
-0.428688 -0.354431 -12.8929 34 19 24 
-0.121689 -0.280431 -12.5799 95 90 86 
0.413311 -1.31243 -10.3369 106 135 113 
-0.744689 -2.00643 -12.6449 115 116 108 
-0.788688 -1.29943 -12.6589 77 69 67 
-0.200689 -1.09943 -12.5979 63 63 51 
0.187312 -0.581431 -12.5299 131 150 128 
0.569311 -1.66043 -9.88893 131 133 112 
-0.454689 -0.391431 -12.9849 30 22 20 
-0.0616885 -1.07743 -12.1919 70 85 52 
0.402312 -0.930431 -11.5779 85 88 45 
-0.690688 -1.71043 -11.2149 75 106 46 
0.0413115 -2.30543 -11.2099 119 194 163 
-0.442688 -1.97343 -11.8869 112 116 91 
-0.891689 -1.87943 -12.5679 38 17 22 
1.01631 -0.397431 -10.8279 42 59 27 
-0.952689 -1.53143 -12.5859 36 40 43 
-1.03469 -1.28343 -12.5589 46 39 46 
0.883312 -0.968431 -12.5559 23 24 28 
-2.20369 -1.85943 -11.7939 48 57 38 
0.288311 -1.26843 -10.9169 85 97 59 
0.454311 0.291569 -10.1839 156 156 154 
0.531312 -1.39043 -12.6219 121 111 102 
0.670312 -0.609431 -12.5779 87 84 75 
-0.374689 -0.703431 -10.6039 82 102 51 
-1.09469 -0.542431 -12.6639 42 20 23 
-0.518688 -2.15843 -13.0309 56 21 25 
-0.362689 -0.653431 -10.2169 76 97 64 
-0.827689 -0.582431 -12.6409 126 118 115 
-0.971689 -1.79543 -10.7959 110 147 106 
-0.200689 -1.39943 -12.6039 37 32 28 
-1.60569 -2.02843 -10.1989 157 157 145 
-0.482689 -2.05343 -11.8639 111 113 91 
0.288311 -1.10043 -11.7399 108 134 107 
0.0283115 -0.517431 -12.5479 113 100 92 
-0.319688 -1.71443 -12.6059 111 101 91 
-0.612688 -2.01343 -13.3739 50 18 23 
-0.00168851 -0.593431 -11.0289 61 74 46 
0.725312 -0.629431 -13.1899 70 45 85 
0.814312 -1.00543 -13.4049 92 68 116 
0.638312 -0.467431 -13.2879 75 38 45 
1.06131 -1.45243 -12.5349 71 32 33 
-0.00468851 -1.93143 -12.6089 138 131 123 
0.457311 -0.087431 -12.7329 38 19 23 
0.407311 0.312569 -10.1699 160 181 174 
0.112311 -2.04743 -12.6429 57 56 54 
-0.538688 -1.78843 -12.6499 115 106 99 
-0.132689 -0.222431 -12.5329 33 34 38 
-0.714688 -2.01443 -12.9539 48 19 23 
-0.897689 -0.489431 -12.8809 39 19 21 
0.218311 -0.907431 -12.5609 54 47 41 
-0.465688 -1.01443 -12.6449 36 32 31 
-0.421688 -2.27343 -12.5559 65 28 35 
-0.418689 -1.10843 -12.6369 38 37 35 
0.664311 -0.529431 -13.3099 68 36 41 
-0.0296885 -0.380431 -12.5989 88 77 71 
-0.347688 -1.42143 -12.6159 54 46 43 
-0.177689 -0.498431 -12.6079 113 102 98 
0.494311 -0.949431 -12.6299 71 62 57 
0.446312 -2.00843 -12.6249 90 30 40 
-0.465688 -0.494431 -13.4149 40 21 25 
0.821311 1.36857 -10.4049 87 106 84 
-0.0746885 -0.277431 -12.9679 36 20 21 
-0.567689 -2.07343 -13.4219 66 27 32 
-0.734689 -0.570431 -13.4569 68 32 36 
-0.0136885 -1.01943 -12.4899 60 72 36 
-0.637689 -1.15643 -11.7099 111 142 124 
0.238311 -2.01143 -12.6419 43 43 41 
-1.06569 -1.07243 -12.5809 2 5 12 
0.619312 -0.369431 -13.0579 56 30 33 
-0.674689 -1.96143 -13.1829 58 23 27 
0.667311 -0.735431 -11.2909 119 123 98 
0.198311 -0.180431 -10.4559 112 143 128 
-1.58469 -2.03043 -10.1959 58 67 36 
-0.385689 -1.18843 -11.6799 97 115 67 
-0.650689 -1.77043 -13.5599 79 26 34 
0.0333115 -1.17943 -12.2109 87 101 68 
0.312312 -1.88843 -13.5389 50 25 28 
-0.514688 -0.437431 -13.0789 34 20 20 
-0.915689 -1.32743 -13.0889 51 19 24 
-0.594689 -2.22143 -12.8349 57 22 28 
0.829311 -1.03843 -13.3099 194 167 186 
-1.68969 -1.53743 -11.6939 118 98 71 
-1.24069 -2.34343 -12.0419 155 172 166 
-1.27869 -2.44143 -12.1249 153 123 113 
0.885311 -1.08743 -12.8359 54 28 31 
0.0523115 -2.27643 -11.2239 143 153 142 
-0.480689 -1.34143 -12.6789 128 119 110 
-0.264689 -0.792431 -11.3539 51 71 34 
0.294311 -1.97143 -13.0059 55 23 28 
0.757311 -1.82943 -12.9029 52 21 26 
-0.595689 -2.05143 -13.3619 58 17 25 
0.868311 -0.378431 -12.5569 56 31 34 
0.323312 0.239569 -10.1979 149 175 166 
1.07231 -0.296431 -10.6859 74 97 69 
-0.897689 -1.68243 -12.6009 41 41 43 
-0.0266885 -0.222431 -12.5609 28 28 28 
-1.61969 -1.55643 -11.7339 132 128 116 
-0.528688 -1.31643 -12.6879 127 116 110 
0.625311 -0.267431 -10.7109 74 82 58 
0.807311 -1.05043 -10.2179 102 106 89 
-0.266688 -2.09043 -13.1579 52 23 27 
-0.991688 -1.85443 -10.8159 88 126 53 
-1.37169 -1.97243 -10.3269 80 100 73 
-1.05869 -0.800431 -12.6629 90 81 76 
0.412311 -1.63043 -12.6379 105 96 89 
0.738311 -0.286431 -12.6689 55 28 33 
-2.08669 -1.80243 -11.7939 81 95 80 
-0.0806885 -0.376431 -13.3889 47 27 28 
-0.867689 -0.465431 -12.8419 42 22 24 
-1.17269 -0.720431 -12.5769 39 42 47 
-0.734689 -1.59943 -13.3909 70 23 29 
0.430312 -1.21043 -12.6529 88 80 69 
0.847311 -1.88143 -12.4759 70 55 60 
-2.97869 -2.42743 -12.1299 117 99 95 
-0.225689 -1.20543 -12.2389 73 80 49 
0.427311 -0.016431 -12.5199 57 37 49 
0.878312 -1.07143 -13.0729 159 120 164 
-0.320689 -0.241431 -12.6189 44 23 28 
0.185311 -0.711431 -11.5749 114 127 117 
-0.381689 -0.649431 -10.2979 55 72 38 
1.01031 -1.22443 -12.4999 64 37 44 
0.726312 -0.433431 -12.7869 53 28 31 
0.104311 -1.45143 -12.5699 127 117 107 
0.340311 -0.556431 -11.2669 99 117 105 
-1.10469 -1.85043 -10.6309 107 138 78 
-0.947689 -1.07543 -12.6169 123 113 112 
-0.177689 -0.225431 -12.5279 36 41 44 
0.892312 -0.930431 -12.6649 55 26 31 
0.736311 -1.44443 -12.5819 141 132 125 
0.771312 -0.666431 -12.8759 54 25 30 
0.865312 -1.63043 -12.5389 149 138 132 
-0.852688 -1.57943 -13.0369 61 22 27 
-0.174689 -1.03143 -12.4569 38 39 31 
0.551311 -0.664431 -12.5929 48 41 31 
-1.16369 -0.874431 -12.7029 46 21 24 
0.553311 -1.26443 -12.6249 65 58 50 
-0.878689 -1.83843 -12.5579 50 41 46 
-0.254689 -0.317431 -12.9289 34 20 20 
0.949311 -0.979431 -12.5169 57 27 29 
0.966312 -1.83143 -12.5499 52 32 33 
0.260311 -1.18143 -10.9809 147 151 128 
-0.868689 -1.31943 -11.6559 135 153 141 
0.240311 0.083569 -10.3009 84 107 55 
-0.366689 -1.46343 -12.6149 59 52 46 
-0.851689 -0.622431 -13.5399 42 24 24 
-0.209689 -1.17043 -12.4589 52 66 33 
-0.487689 -0.419431 -13.0449 28 13 16 
-0.364689 -0.407431 -13.1289 31 17 17 
-0.274689 -0.264431 -12.7469 31 16 19 
-0.935688 -1.86843 -10.8379 106 131 63 
-0.942689 -0.588431 -12.6559 124 115 108 
0.290311 -1.27443 -10.8519 63 83 30 
-0.552688 -0.344431 -12.7579 33 17 18 
0.679312 -1.73343 -12.5689 135 124 120 
-0.316689 -0.749431 -11.0009 57 70 24 
0.414311 0.581569 -10.1389 140 160 149 
-0.742689 -1.85143 -12.6489 82 71 65 
0.967312 -1.14143 -12.5959 54 25 30 
-2.10969 -1.81343 -11.7589 113 131 119 
-0.206689 -2.11543 -12.9589 54 23 28 
0.982311 -1.52043 -12.8829 49 29 30 
-0.149689 -0.270431 -12.8729 37 21 22 
0.819311 -0.997431 -13.5069 56 34 37 
0.223311 -0.075431 -12.5789 29 14 17 
0.632311 -1.81443 -13.3379 68 37 42 
0.740312 -0.747431 -13.3679 165 133 157 
0.881311 -0.970431 -12.7479 56 27 32 
-0.473689 -0.340431 -12.8099 30 15 20 
-1.06269 -1.81043 -10.7369 174 182 145 
-0.641689 -0.921431 -12.6749 93 82 78 
-0.389689 -0.282431 -12.7039 34 18 18 
-0.589688 -1.17043 -11.7049 119 135 124 
0.287311 -1.27643 -10.7819 84 101 69 
0.326311 -1.91543 -12.6589 100 91 84 
0.553311 -1.90743 -12.6579 79 74 68 
-0.494689 -0.653431 -12.6119 120 109 103 
-0.336689 -0.309431 -12.8309 34 18 21 
-0.209689 -0.342431 -13.0639 41 25 26 
-0.670689 -0.416431 -12.8699 36 22 22 
0.926311 -1.80743 -12.8119 72 27 32 
0.883312 -1.80143 -12.5689 102 94 92 
-0.231689 -0.354431 -13.0839 35 21 21 
-0.168689 -0.419431 -13.4739 44 24 26 
-0.171689 -1.01143 -12.5639 33 34 29 
-0.888689 -1.72443 -12.6249 38 36 37 
-0.834688 -0.508431 -12.6509 100 93 83 
-2.14769 -1.84143 -11.8009 76 82 70 
0.0183115 -0.961431 -11.4639 220 110 139 
0.781312 -0.024431 -10.3009 96 114 90 
0.844311 -1.08743 -13.3959 126 98 138 
0.0183115 -1.04443 -12.5079 64 76 40 
-0.543689 -0.509431 -13.3599 33 21 25 
-0.893688 -1.51643 -12.9879 57 22 26 
-0.836689 -1.96943 -12.6749 42 22 24 
-1.72269 -1.57743 -11.7319 117 97 72 
-0.138689 -2.06543 -13.1269 52 21 26 
0.265311 -1.95843 -13.1759 61 30 35 
-0.210689 -2.08143 -13.1339 52 21 26 
0.508312 -1.00943 -10.5709 79 107 48 
-0.641689 -1.81443 -13.5589 77 24 32 
-0.0206885 -0.618431 -11.0689 62 70 46 
-0.228689 -1.27543 -12.1669 97 105 84 
0.677311 -0.723431 -11.2789 105 99 75 
0.501311 -1.37043 -12.6359 111 102 97 
0.226311 -2.01643 -12.8949 56 24 29 
-0.753689 -1.58543 -13.3399 66 21 26 
-0.583688 -1.58543 -12.6719 77 68 63 
-0.512689 -0.363431 -12.5619 44 45 37 
-0.231689 -1.29643 -12.2759 67 92 35 
-0.290689 -0.908431 -12.5989 105 94 88 
-0.989689 -0.815431 -13.3569 29 17 17 
-0.817689 -1.42143 -13.3009 55 19 23 
-1.05269 -1.31643 -12.6989 60 20 28 
0.889311 -1.12643 -12.8609 52 27 31 
0.334311 -1.28843 -10.4649 92 118 83 
-0.247689 -2.05243 -13.5019 55 26 30 
-0.0246885 -2.08743 -12.8829 55 24 29 
0.236311 -1.15443 -12.6129 73 63 54 
0.866311 -1.02243 -12.8519 55 29 32 
-0.595689 -1.45343 -12.6739 57 50 44 
-0.388689 -2.08943 -13.4729 52 26 29 
0.617311 -0.356431 -13.0349 55 29 32 
-0.844689 -1.75243 -11.0619 47 75 14 
-0.723688 -1.71243 -11.1589 129 155 126 
1.09531 -0.173431 -12.4809 97 85 59 
0.229311 -0.199431 -12.5319 93 90 83 
-0.274689 -0.778431 -11.1709 68 75 42 
-1.01669 -0.879431 -12.6659 80 72 69 
1.33831 0.170569 -10.2669 166 171 165 
-0.275688 -0.444431 -13.4459 42 23 25 
-0.318689 -0.754431 -10.8719 68 91 47 
-0.349689 -0.726431 -10.8149 72 91 35 
0.115311 -1.96243 -13.4099 55 24 29 
-0.365689 -0.661431 -10.5249 86 105 60 
0.349312 -1.26043 -12.6349 102 92 82 
0.474312 -0.227431 -12.5219 121 114 108 
0.740312 -0.643431 -13.1079 165 124 164 
0.621311 -1.92143 -12.5849 22 26 29 
-0.627689 -1.99043 -13.3409 52 17 21 
-0.343689 -0.274431 -12.7179 35 19 22 
1.06831 -1.64743 -12.5849 57 30 35 
-0.625688 -1.64743 -11.3639 71 102 26 
-0.662688 -1.13543 -11.7129 133 161 147 
-1.07369 -0.953431 -12.9239 27 17 18 
-0.271689 -0.446431 -13.4629 45 24 29 
-0.138689 -1.11743 -12.1959 96 117 102 
0.704311 -1.90043 -12.5829 35 36 38 
-0.619689 -1.20743 -12.6849 47 42 39 
0.629312 -0.147431 -12.6319 47 25 27 
0.0893115 -0.172431 -12.7679 34 18 21 
-0.717689 -1.18343 -11.6899 126 158 143 
-0.969689 -1.44943 -12.8459 46 17 21 
-0.197689 -1.39143 -12.1679 80 106 79 
0.783311 -0.367431 -12.6549 54 29 33 
-0.747689 -1.61843 -13.3239 67 22 27 
0.626311 -0.341431 -12.5459 99 95 84 
-0.238689 -1.25443 -12.3549 74 99 57 
0.472311 -1.94743 -12.8659 54 23 28 
-0.926688 -1.11743 -13.2699 30 16 16 
0.148311 -1.20643 -11.9729 41 55 29 
-0.402689 -0.656431 -10.1989 59 80 47 
0.955311 -1.64143 -13.0049 63 34 36 
-0.225689 -0.268431 -12.8049 34 18 19 
-1.66569 -1.54743 -11.7159 132 110 96 
-1.03869 -1.76643 -10.7719 165 173 150 
0.959311 -1.68343 -12.9289 56 27 31 
0.657311 -1.80443 -13.3979 74 42 45 
-1.40469 -1.99343 -10.3079 74 93 71 
-0.00368851 -2.11443 -12.7159 59 28 33 
-1.05069 -0.967431 -12.9829 27 17 16 
-0.570688 -0.521431 -13.3789 33 18 21 
-0.151689 -0.450431 -12.6169 101 90 84 
-0.0546885 -0.948431 -11.2169 55 72 28 
-0.493688 -1.15243 -11.7369 123 130 112 
0.0843115 -2.57043 -10.9699 121 146 127 
-0.919689 -1.75943 -10.9939 42 67 25 
-1.02669 -0.678431 -12.6709 115 108 102 
0.874312 -0.914431 -12.4819 78 82 94 
0.509311 -0.407431 -10.9489 62 57 38 
-0.152689 -2.15243 -12.7399 56 24 29 
0.142311 -2.80343 -10.6959 80 103 87 
-0.436689 -0.322431 -12.5609 14 28 28 
0.0743115 -1.13143 -12.2319 80 96 57 
-1.03269 -0.471431 -12.6269 54 25 29 
-0.248689 -1.41843 -12.0739 79 104 65 
-0.476689 -1.82343 -12.6539 93 82 76 
-0.835689 -1.93043 -12.5749 21 34 40 
-0.169689 -0.396431 -12.5979 89 79 70 
1.04131 -1.42743 -12.5729 64 32 35 
0.789311 -0.010431 -10.2799 101 114 94 
-0.418689 -0.273431 -12.6459 44 22 25 
1.23431 0.029569 -10.3839 202 199 192 
-0.404689 -0.293431 -12.7239 35 16 18 
0.559312 -0.969431 -10.5619 69 91 42 
-0.455689 -0.318431 -12.7559 33 19 19 
-0.348689 -0.322431 -12.5539 39 41 40 
-0.826689 -1.64243 -13.0459 59 23 27 
-0.193689 -2.17543 -12.5069 56 52 49 
0.527312 -0.039431 -12.5259 65 48 56 
0.937311 -1.38243 -12.9979 47 29 29 
-1.48969 -1.47743 -11.6769 177 183 173 
-0.862688 -1.80043 -10.9779 47 65 13 
0.132311 -2.75143 -10.7839 112 125 107 
-0.189689 -0.222431 -12.6979 32 18 18 
0.0473115 -1.08843 -12.2879 63 77 42 
-0.934689 -0.628431 -13.3019 38 22 23 
0.126311 -1.93843 -13.5369 58 26 31 
0.522312 -0.546431 -12.5859 62 53 46 
-0.0976885 -0.847431 -12.5479 60 53 45 
0.510311 -1.98643 -12.4829 134 112 115 
0.789311 -0.901431 -13.3099 197 172 193 
-0.797688 -1.57443 -13.2019 62 23 26 
0.871311 -1.69143 -13.3869 56 27 32 
-0.194689 -2.09543 -13.0449 52 21 26 
-0.0136885 -1.60243 -12.5539 124 111 102 
-0.958688 -0.912431 -13.4159 24 14 15 
-0.212689 -2.10143 -13.0359 51 20 25 
-1.16769 -0.730431 -12.7139 67 26 32 
0.283311 -0.202431 -13.0819 48 28 30 
0.313311 -0.971431 -10.9339 100 123 81 
-0.102689 -1.40743 -12.5879 90 81 74 
0.800312 -0.539431 -12.6609 55 28 33 
-0.0406885 -0.341431 -13.2609 47 22 26 
0.750311 -0.069431 -10.3689 93 107 82 
0.616311 -0.401431 -13.2219 71 36 42 
-0.489689 -2.04343 -12.6329 133 126 118 
0.527312 -1.95143 -12.5599 24 25 27 
0.0893115 -2.61743 -10.9299 82 94 48 
-1.01469 -1.15143 -12.9539 33 13 14 
-0.245689 -0.810431 -11.3729 82 110 62 
-0.774688 -1.63843 -13.2069 63 24 27 
0.977311 -1.30843 -12.4969 19 20 22 
0.0343115 -0.163431 -12.5069 108 114 114 
-1.05769 -0.974431 -12.9559 30 18 20 
-0.861688 -1.60443 -12.6149 95 91 82 
-1.21869 -2.38743 -12.0229 198 155 162 
-0.902689 -1.23943 -13.2219 49 20 24 
-0.0136885 -2.21143 -11.3079 101 129 106 
-0.648688 -2.05443 -12.6349 117 113 102 
-0.648688 -1.95043 -13.3259 60 21 26 
0.872311 -0.961431 -12.7759 56 27 32 
-0.825688 -1.76643 -12.9229 60 20 28 
-0.449688 -0.454431 -12.6149 114 105 96 
-0.780689 -2.03043 -12.6289 25 34 39 
0.143311 -1.73943 -12.5489 127 116 112 
0.969311 1.51557 -10.4469 124 147 127 
0.841312 -0.571431 -11.0329 90 109 89 
-0.890688 -1.79743 -10.8999 99 138 91 
-0.621688 -1.95843 -12.6429 128 119 110 
0.155311 -0.319431 -10.5919 82 109 90 
-0.0706885 -0.233431 -12.8249 32 16 17 
0.493311 -0.430431 -10.9579 67 69 48 
0.809312 -0.383431 -12.6269 55 30 33 
-0.447689 -1.03343 -11.7889 127 145 133 
-1.55269 -1.56443 -11.7219 126 155 135 
0.945311 -1.33043 -12.5509 101 92 87 
-0.558689 -1.96343 -12.6459 106 98 87 
0.207311 -1.82243 -12.5899 106 96 94 
-0.795689 -1.87643 -12.8979 57 22 28 
0.823312 -0.876431 -12.9019 51 26 32 
0.297311 -0.189431 -13.0389 42 20 23 
-0.140689 -0.833431 -12.5559 84 74 65 
-0.938689 -1.08443 -13.2579 24 14 15 
-0.245689 -0.809431 -11.3729 82 110 62 
-0.722688 -0.944431 -12.6719 93 82 78 
0.227311 -1.59343 -12.5799 125 114 108 
0.325311 -1.00043 -11.6579 98 122 74 
-1.00469 -1.34743 -11.6589 153 177 163 
0.591312 -0.412431 -13.5149 60 34 37 
0.940311 -1.38243 -12.9539 47 27 29 
0.931311 -1.82443 -12.7359 59 24 30 
-0.0606885 -2.00443 -13.4159 50 24 27 
0.0973115 -1.95843 -13.4609 57 25 30 
-0.459689 -0.711431 -9.74993 70 90 63 
-0.184689 -0.697431 -12.5869 119 108 104 
-1.00569 -1.10443 -13.0129 25 15 14 
-0.362689 -0.644431 -10.4599 70 86 49 
0.874312 -1.40243 -12.5449 136 122 119 
0.586312 1.09157 -10.3039 61 66 44 
-1.09769 -1.89643 -10.6839 106 124 50 
-1.08169 -2.18543 -12.0209 157 150 140 
0.910312 -0.913431 -12.5819 58 27 33 
0.110311 -2.11643 -12.5019 87 46 52 
-0.496689 -0.486431 -13.3129 37 19 19 
0.837312 0.049569 -10.1999 112 124 104 
-0.195689 -1.00143 -12.2769 34 46 22 
-0.410689 -1.50243 -12.2349 82 100 88 
0.914311 -1.33343 -13.3329 63 38 42 
0.0243115 -0.171431 -12.5109 63 68 72 
-0.771689 -1.66443 -13.1899 62 23 26 
0.861311 -0.382431 -12.4519 156 177 158 
0.484311 -1.33743 -10.2919 163 174 166 
-2.52869 -2.14143 -11.8579 105 111 99 
-0.920689 -1.81043 -10.9279 99 128 62 
0.904311 -1.57043 -13.5059 54 32 34 
0.904311 -0.834431 -12.5339 58 28 30 
-1.29969 -2.49443 -12.3509 110 82 68 
-0.495688 -1.57943 -11.6239 29 40 10 
-1.17369 -1.88943 -10.5439 110 135 106 
0.938312 -1.67143 -13.0189 60 29 34 
0.295311 -1.14543 -12.6309 85 77 66 
-2.62469 -2.22743 -11.9039 133 94 97 
0.342312 -0.181431 -13.0559 50 28 31 
0.386312 0.212569 -10.2629 144 147 138 
0.0383115 -1.98243 -13.3959 52 23 27 
0.906312 -0.990431 -12.6639 56 27 32 
0.121311 -1.68843 -12.5459 130 121 116 
0.711312 -0.574431 -12.9929 52 26 29 
-0.687689 -2.16443 -12.8019 42 17 20 
-1.06369 -1.16143 -12.8059 42 16 19 
0.144311 -1.29343 -12.5869 112 104 93 
-2.59569 -2.19543 -11.8979 128 104 104 
0.218311 -1.62943 -12.5679 127 116 110 
0.395312 -1.86343 -13.5279 56 30 33 
-0.621688 -0.434431 -12.9639 32 20 22 
-1.03969 -1.10343 -12.9179 33 19 19 
0.399311 0.451569 -10.2099 157 159 156 
0.664311 -1.92143 -12.7109 64 25 30 
0.0623115 -2.56743 -10.9709 116 140 116 
-0.837689 -1.38243 -13.2779 55 20 26 
0.307312 -1.61743 -12.5889 97 86 80 
-0.0496885 -0.407431 -12.6019 95 86 79 
0.604311 -0.579431 -12.4549 113 130 112 
-0.414688 -0.399431 -13.0479 32 18 18 
0.439312 -1.87143 -13.3779 56 30 31 
-0.858689 -1.86743 -12.7239 50 24 25 
-0.796688 -0.366431 -12.6029 70 27 34 
-0.643688 -0.530431 -12.6349 134 125 116 
0.255311 -0.515431 -12.5379 110 123 106 
-0.715689 -1.58643 -13.4729 70 25 30 
-1.18869 -1.34943 -11.6739 146 163 155 
0.417311 -1.16343 -12.6619 71 62 53 
0.0693115 -2.60043 -10.9479 82 92 42 
-0.535689 -1.14143 -11.7179 103 121 105 
0.776312 -0.922431 -12.5949 108 101 93 
1.23031 -0.031431 -10.4089 101 130 108 
0.697312 -0.212431 -12.6269 54 29 32 
1.02831 -1.57043 -12.7579 55 30 33 
-0.914689 -1.12843 -13.2989 38 18 20 
0.880311 -1.15743 -13.2919 191 162 184 
-1.00469 -1.36543 -12.8119 55 20 26 
0.479311 -0.869431 -11.4969 94 91 58 
-0.623689 -1.10743 -11.7249 128 156 144 
0.803311 -0.075431 -10.4179 82 105 77 
-1.01769 -2.07543 -12.0609 118 132 109 
0.524311 -0.176431 -12.9709 48 23 26 
0.766311 -0.851431 -13.4169 115 94 137 
0.0763115 -2.54243 -11.0019 95 103 64 
0.0723115 -0.295431 -13.2129 40 18 21 
0.413311 0.757569 -10.1849 111 138 121 
0.851312 0.033569 -10.2319 109 119 92 
0.895311 0.109569 -10.1169 105 135 101 
0.726312 -1.78543 -13.4029 79 45 46 
0.625311 -1.86543 -12.6299 112 105 99 
0.232311 -0.414431 -12.5569 73 64 57 
-0.625688 -2.00243 -12.6249 147 140 132 
-0.830689 -1.54443 -12.6289 137 126 120 
0.651312 -0.503431 -13.3159 75 38 45 
-0.678689 -0.515431 -13.1889 39 20 22 
-0.324688 -1.43543 -12.2789 70 88 76 
0.919311 -1.30143 -13.1739 42 32 33 
-0.334689 -2.07743 -13.5049 53 27 30 
-1.05969 -0.977431 -12.9469 30 18 20 
0.226311 -2.02543 -12.8569 53 24 28 
-1.15169 -0.762431 -12.7929 61 26 30 
0.279311 -1.24643 -10.8849 66 93 40 
-0.291689 -0.263431 -12.5319 36 37 42 
-0.160689 -0.966431 -12.1979 107 106 78 
-0.743689 -2.13543 -12.6969 46 20 23 
-0.0306885 -2.11243 -12.7739 61 30 35 
1.03731 -0.235431 -12.4419 134 151 135 
0.896312 -0.910431 -12.6329 56 27 32 
0.312312 -2.05843 -12.5699 78 28 37 
0.838311 -1.40343 -12.5499 134 125 118 
-0.206689 -0.975431 -12.0769 68 84 45 
0.440311 0.592569 -10.1869 152 156 155 
-1.65869 -1.56843 -11.7069 148 161 152 
0.0303115 -0.281431 -13.0889 44 24 26 
0.868311 -0.874431 -12.7159 54 25 30 
0.584311 1.09457 -10.2519 88 102 87 
0.00831149 -0.468431 -12.5579 135 125 116 
0.250311 -0.843431 -12.3579 149 160 146 
0.857311 -1.10743 -12.5739 143 138 132 
0.491311 -1.90043 -13.0269 54 23 28 
-2.51469 -2.13943 -11.8589 99 96 89 
-1.32269 -1.98743 -10.4209 100 117 98 
0.722311 -1.58143 -12.5949 100 90 81 
-0.0676885 -0.393431 -12.6039 89 82 72 
-1.13869 -0.643431 -12.6309 79 74 71 
-0.382688 -1.88143 -11.9319 77 85 72 
-0.885688 -0.422431 -12.6859 74 38 40 
-1.12769 -1.37643 -11.6619 152 173 166 
0.647312 -0.368431 -12.9309 51 26 29 
0.609312 -0.813431 -12.6069 107 98 91 
0.864312 -0.952431 -12.7999 55 26 30 
0.461311 -1.41443 -12.6419 87 76 72 
0.468311 -0.623431 -12.6019 51 42 37 
-0.618689 -2.10343 -13.1149 66 25 31 
-0.226689 -0.766431 -12.6089 128 118 108 
0.257311 -1.23043 -11.0979 74 99 42 
0.668311 -1.91643 -12.7249 62 26 30 
0.865312 -1.24843 -12.5769 127 118 111 
0.433311 -0.187431 -12.5409 121 118 109 
-0.794689 -2.02643 -12.5949 24 42 44 
0.292311 -0.375431 -12.5759 86 79 73 
-0.965689 -0.599431 -13.0899 38 18 19 
-0.429689 -1.10543 -11.7689 124 129 107 
0.910312 -0.395431 -12.4969 59 34 37 
0.355311 0.533569 -10.2089 140 153 143 
0.641311 -0.450431 -13.1369 55 26 31 
-0.616688 -1.61743 -11.4519 63 79 30 
-0.851689 -1.24643 -11.6689 134 158 142 
-0.243689 -2.15143 -12.8449 56 24 29 
-0.0596885 -0.376431 -13.4249 48 28 30 
-0.364689 -1.17843 -11.7099 112 124 76 
-0.173689 -0.804431 -12.5749 84 75 68 
0.632311 -0.798431 -12.5979 95 88 80 
-0.704688 -0.766431 -12.6589 100 91 84 
-0.0936885 -2.13043 -12.5209 33 38 34 
-1.25969 -2.42043 -12.0929 159 129 119 
-1.45269 -1.53643 -11.7189 172 177 170 
0.0793115 -1.96743 -13.4329 54 25 29 
0.330312 -0.838431 -12.5779 69 62 54 
-0.339689 -0.406431 -12.5789 129 120 111 
-0.642689 -2.26843 -12.5799 49 23 26 
0.455312 -0.027431 -12.5379 51 31 40 
0.665312 -1.18443 -12.6199 120 111 102 
0.808312 -0.014431 -10.2979 92 112 87 
0.522312 -0.936431 -12.6189 95 90 84 
-0.320689 -2.07243 -13.4669 53 27 30 
-2.41269 -2.01643 -11.8779 113 118 112 
0.0763115 -2.52043 -11.0229 114 121 90 
-0.643688 -2.18743 -12.5979 124 117 111 
0.836312 -1.57743 -12.5499 150 141 134 
-0.240689 -1.33443 -12.6059 56 48 46 
-0.881689 -1.75843 -11.0279 86 99 56 
-1.02869 -1.47743 -12.6149 53 18 24 
-0.743689 -1.49743 -12.6569 103 93 84 
0.176311 -1.89043 -12.6229 150 140 131 
-0.939689 -0.936431 -13.4729 30 18 22 
-1.10069 -1.16443 -12.6839 55 18 25 
-0.724689 -1.95943 -12.6419 157 150 142 
-0.275688 -0.827431 -11.3999 69 93 45 
-0.0136885 -1.01143 -11.6839 33 46 20 
-0.265689 -0.953431 -11.9399 39 48 29 
-1.62969 -1.57843 -11.7449 134 135 121 
0.0233115 -2.11743 -12.6359 66 35 40 
0.270312 -0.530431 -12.5389 121 139 123 
0.897312 -1.11743 -13.0229 137 105 155 
-0.795689 -1.39343 -13.4089 51 20 25 
0.511311 -0.745431 -12.6159 90 83 75 
-0.731688 -1.79543 -12.6469 82 72 63 
-0.453689 -0.698431 -9.79993 71 95 71 
-0.0936885 -1.22743 -12.3109 56 71 30 
0.184311 -2.93043 -10.4909 99 101 96 
0.157311 -0.268431 -10.5139 107 130 110 
0.0483115 -2.00443 -12.6259 94 89 86 
-0.334689 -0.715431 -10.8449 66 74 23 
-0.0326885 -2.06443 -11.4419 106 128 105 
-0.974689 -0.549431 -12.6619 53 42 38 
0.788311 -1.88343 -12.5259 27 38 42 
-0.397689 -1.17243 -11.6589 107 136 72 
-0.111689 -2.14343 -12.7359 58 25 32 
0.607311 -0.608431 -12.4419 103 120 102 
-0.327689 -1.46143 -11.9689 43 53 28 
0.181311 -1.11043 -12.5849 94 85 78 
0.720312 -0.683431 -13.3889 141 114 157 
-0.585689 -2.09843 -13.2899 78 31 37 
0.576311 -1.80843 -13.5359 68 37 42 
0.0853115 -0.924431 -12.5629 55 48 42 
-2.88569 -2.35943 -12.0309 122 132 121 
-1.14869 -2.23243 -12.0269 155 167 155 
0.594311 -1.94643 -12.4859 46 50 51 
-0.0686885 -2.12343 -12.5119 52 58 54 
0.0893115 -1.17043 -12.2959 49 59 25 
0.853311 -0.893431 -12.5209 21 22 26 
-0.370688 -0.441431 -13.2759 32 16 17 
-1.00369 -0.444431 -12.6019 65 34 40 
-1.10969 -0.492431 -12.5819 48 23 29 
-0.222689 -1.35743 -12.1399 119 142 98 
-0.271689 -0.343431 -12.9979 35 21 21 
-0.432689 -0.656431 -10.2429 58 73 40 
-0.717689 -0.502431 -13.0819 35 21 21 
0.619312 -1.79643 -13.5349 70 38 41 
0.193311 -2.94743 -10.4589 106 111 105 
-0.491689 -1.05743 -12.6579 27 25 26 
0.859312 -1.80743 -12.8629 56 25 31 
-0.868689 -1.23743 -11.6709 130 157 140 
0.448312 -1.30043 -10.3559 112 131 103 
0.363311 -0.943431 -12.6099 69 62 54 
-0.995688 -1.02543 -13.1089 20 14 14 
-0.158689 -1.25843 -12.2839 75 98 72 
0.813312 -0.875431 -13.0579 132 99 144 
-0.441689 -0.575431 -12.6139 69 65 56 
-0.391688 -0.960431 -12.6149 62 62 54 
-0.756689 -1.81243 -13.0719 66 21 26 
0.847311 -0.824431 -12.7599 52 25 30 
-0.310688 -0.330431 -12.9179 34 20 20 
0.469312 0.657569 -10.1229 142 158 145 
0.990312 -1.36843 -12.7069 57 30 35 
-1.04469 -1.13043 -12.8849 36 18 18 
-0.0606885 -0.323431 -13.1589 41 19 22 
-1.09669 -0.557431 -12.6859 41 21 23 
0.141311 -0.269431 -10.5159 120 136 107 
-1.23069 -1.43243 -11.6919 145 162 156 
0.248311 -1.57243 -12.5909 121 110 104 
-0.954688 -1.70243 -12.6159 43 18 21 
1.01831 -1.45343 -12.6769 59 32 37 
0.187312 -1.21943 -11.8639 71 90 44 
0.211311 -0.248431 -13.2009 62 36 39 
-0.424689 -0.674431 -10.3649 62 77 44 
0.215311 -0.648431 -11.5059 85 103 87 
1.09131 -1.62943 -12.5119 62 33 38 
-0.383689 -0.242431 -12.5549 65 35 35 
0.257311 -1.31043 -12.6069 111 105 91 
-0.0386885 -1.01043 -12.4229 59 70 38 
0.917311 -1.45843 -13.4419 79 44 50 
-0.862688 -1.16543 -13.4549 33 19 18 
-0.961689 -1.85043 -10.8449 100 127 56 
-0.282688 -2.19943 -12.6889 57 26 31 
0.994312 -1.36943 -12.4929 22 26 27 
-0.801688 -0.467431 -12.6289 93 84 77 
-1.22169 -0.759431 -12.5599 53 18 25 
0.734312 -0.241431 -12.5799 56 31 35 
0.542311 -0.440431 -12.5689 133 145 133 
-1.26469 -1.47443 -11.7009 145 160 155 
0.517312 -1.86243 -12.6489 84 81 74 
-0.900689 -1.53543 -12.9489 60 24 28 
-1.89269 -1.70243 -11.7779 102 122 110 
0.433311 0.327569 -10.2079 157 156 154 
-0.902689 -1.70643 -12.5739 60 55 61 
-0.843688 -2.02943 -12.5749 53 21 26 
0.975312 -1.73843 -12.8719 56 25 30 
0.117311 -0.385431 -10.8389 74 85 68 
-1.09969 -1.03243 -12.7929 23 13 14 
-0.837689 -0.523431 -13.0369 38 19 21 
-1.18269 -0.792431 -12.6739 102 41 49 
0.0833115 -1.86443 -12.6089 91 84 76 
0.487311 -0.470431 -12.5769 134 151 133 
0.505311 -1.83243 -13.4939 61 32 34 
-0.304689 -0.456431 -13.4629 37 21 22 
-0.799689 -1.97243 -12.7879 45 23 25 
0.185311 -0.603431 -12.5319 140 152 132 
-0.596689 -2.22843 -12.7719 48 19 24 
0.712312 -0.511431 -12.4399 128 159 141 
-0.720689 -0.398431 -12.7729 35 19 22 
0.0923115 -0.432431 -10.8029 44 60 33 
-0.475689 -1.58643 -11.5769 70 100 40 
-0.944688 -1.67543 -12.6729 51 21 23 
1.09031 -1.65843 -12.4749 142 125 131 
-0.237689 -0.385431 -13.1929 38 19 21 
-0.957689 -0.615431 -13.1579 44 21 27 
0.892312 0.124569 -10.1029 104 121 76 
-0.665689 -2.17843 -12.8499 46 20 21 
-1.18469 -0.613431 -12.6019 40 16 16 
-1.44769 -1.52843 -11.7149 171 177 167 
-0.104689 -0.293431 -12.9959 45 25 27 
0.686311 -1.54043 -12.6129 107 93 90 
0.816311 -1.00843 -13.3919 104 81 127 
-1.71569 -1.64643 -11.7769 126 148 136 
-1.70969 -1.64843 -11.7809 127 149 137 
1.08231 -1.73643 -12.5829 106 84 86 
-1.13069 -0.768431 -12.8789 37 21 22 
-1.10769 -0.969431 -12.8129 24 14 13 
0.788311 -0.478431 -12.6749 53 27 28 
-0.498689 -1.08443 -11.7499 98 131 114 
1.06631 -1.75743 -12.4789 99 88 84 
-0.165688 -2.09843 -13.0009 53 22 27 
-0.704688 -2.10943 -12.6189 154 154 154 
0.218311 -0.159431 -12.5229 42 40 41 
-0.298689 -2.15743 -12.8769 56 24 29 
1.35031 0.109569 -10.2719 210 205 201 
-0.697689 -2.22443 -12.6009 45 19 22 
-1.72569 -2.03043 -10.0079 123 140 122 
0.0213115 -0.958431 -11.4209 225 145 170 
0.606312 -1.07443 -12.6149 116 112 103 
-0.711689 -1.99343 -12.9919 49 20 22 
-0.887689 -0.426431 -12.6929 78 39 42 
0.948312 -1.46343 -13.0059 47 31 32 
-0.420689 -0.312431 -12.7689 30 18 18 
-0.0266885 -0.980431 -11.4179 72 93 50 
0.883312 -1.55443 -12.5459 147 136 132 
0.373311 -0.190431 -13.1369 47 28 30 
0.618311 -1.25843 -12.6179 101 94 84 
-0.788688 -1.33843 -13.4979 41 19 22 
-0.490689 -2.09543 -13.4929 47 20 25 
-0.0726885 -2.04143 -12.5969 137 126 120 
-0.912688 -1.25443 -11.6899 143 159 148 
0.200311 -1.94243 -13.4059 57 25 30 
-0.425689 -1.10343 -11.7529 96 120 96 
-0.0116885 -2.13543 -11.3909 83 101 63 
-0.211689 -1.14043 -12.5829 72 75 54 
0.344312 -0.263431 -12.5549 120 110 109 
-1.66869 -1.53343 -11.6909 120 113 94 
-0.874689 -1.15643 -12.6419 79 70 63 
0.877311 0.065569 -10.1809 115 130 107 
0.897312 -1.22343 -13.3259 111 88 132 
0.325311 0.170569 -10.2249 159 182 176 
-0.747689 -2.02343 -12.6419 45 50 46 
-0.811688 -1.37843 -13.3729 51 20 25 
-1.22969 -1.93443 -10.4979 95 108 88 
-0.216689 -0.539431 -12.6089 105 94 88 
-0.972688 -1.47443 -12.8089 40 15 18 
0.311311 -1.31043 -10.4859 115 121 87 
0.172311 -1.84343 -12.6029 104 93 89 
-0.426688 -0.684431 -10.4099 86 100 65 
-1.08969 -0.730431 -12.9979 39 20 22 
-1.41669 -1.51343 -11.7089 161 171 160 
-0.679689 -2.00143 -13.0749 50 20 22 
-0.782688 -2.07743 -12.5639 34 45 49 
0.786312 -1.92243 -12.5749 84 29 35 
-0.166689 -0.386431 -13.3029 45 20 24 
0.693312 -0.547431 -13.0249 52 26 29 
-1.16369 -0.778431 -12.5689 53 58 61 
1.02531 -1.62543 -12.8119 58 33 36 
0.270312 0.222569 -10.2039 160 181 174 
-0.733689 -1.98843 -12.9389 45 19 22 
0.285311 -1.25643 -10.9979 80 96 51 
-0.00168851 -2.08843 -11.4059 110 125 94 
0.763312 -0.723431 -13.0299 41 36 58 
0.121311 -2.08143 -12.7289 55 26 30 
-0.894688 -1.75843 -10.9409 86 125 68 
0.186311 -1.08743 -12.5859 81 70 64 
-0.0276885 -1.00743 -11.9899 57 77 40 
-0.0896885 -0.970431 -12.3089 49 60 30 
-0.00868851 -0.297431 -13.1129 43 21 24 
0.347311 0.646569 -10.2009 110 138 116 
-0.694688 -2.15443 -12.7999 42 17 20 
-0.426688 -2.22543 -12.7359 71 31 39 
1.06831 -1.45043 -12.5119 71 32 35 
0.0463115 -1.11143 -12.4999 68 80 44 
0.482311 -1.59543 -12.6329 106 93 85 
0.0613115 -1.21443 -12.1439 82 91 60 
-0.534689 -1.10843 -11.7479 128 140 126 
-0.830689 -1.99743 -12.5459 41 62 67 
0.325311 -0.106431 -10.4869 94 125 109 
0.00331149 -2.08943 -12.8399 58 27 32 
0.242311 -1.13743 -11.7909 75 98 46 
0.373311 -1.91043 -13.2419 56 24 29 
-0.771689 -1.73043 -13.1219 65 24 30 
0.866311 -0.696431 -12.5289 52 20 25 
0.920312 -1.13143 -12.7419 53 26 31 
0.0743115 -0.933431 -12.5559 44 41 36 
0.0753115 -1.38843 -12.5659 129 119 107 
0.236311 -0.163431 -10.4649 98 132 115 
-2.18669 -1.84743 -11.7989 54 58 41 
0.667311 -1.96143 -12.5709 91 30 38 
-0.275688 -2.12243 -12.9999 52 21 26 
0.590311 -0.587431 -12.4459 115 128 118 
-1.15369 -2.28943 -12.0119 179 160 154 
0.738311 -1.53043 -12.5939 97 88 81 
0.689312 -1.90343 -12.5909 29 33 34 
-0.522689 -1.34643 -12.6869 115 106 99 
0.0693115 -0.465431 -12.5489 102 89 83 
0.0883115 -1.97643 -13.3609 54 23 28 
-0.241689 -0.759431 -12.6139 99 89 80 
-0.405688 -0.687431 -9.98493 102 114 100 
0.00731149 -1.28543 -12.2149 87 102 63 
0.440311 -1.36243 -10.2269 109 130 97 
-0.893688 -1.57843 -12.9249 59 23 27 
-1.14869 -0.915431 -12.7229 38 19 21 
-0.970689 -1.67543 -12.5779 39 20 22 
0.00131149 -2.11543 -12.7009 64 33 38 
0.326311 0.141569 -10.2399 159 182 174 
0.148311 -1.20443 -12.5789 81 72 63 
-0.265689 -0.887431 -11.6879 51 65 30 
-1.15269 -0.818431 -12.7799 42 22 24 
0.181311 -0.082431 -12.5739 33 17 20 
-0.247689 -0.910431 -11.8379 58 76 26 
0.167311 -2.88843 -10.5839 124 122 109 
0.732311 -1.76543 -12.5789 132 123 116 
-1.03969 -0.767431 -13.1239 31 19 19 
-0.273688 -2.11943 -12.5829 126 118 115 
-1.02669 -1.75343 -10.7969 156 168 146 
0.721312 1.27357 -10.3379 55 64 45 
-0.317688 -0.389431 -13.1179 34 20 20 
0.669311 -1.79543 -13.4499 71 39 42 
0.268312 -0.166431 -12.5179 118 115 110 
-0.821689 -0.381431 -12.6249 71 30 36 
0.0223115 -1.49343 -12.5679 124 112 100 
0.740312 -0.111431 -10.4499 71 86 43 
0.677311 -0.592431 -12.4279 112 129 113 
-1.15669 -1.33843 -11.6759 140 167 158 
0.235311 -2.02843 -12.5839 23 23 25 
-0.352689 -1.39443 -12.2759 91 111 99 
-1.07069 -1.08843 -12.5739 0 5 11 
-1.20569 -0.716431 -12.6179 54 20 19 
-0.350689 -1.07943 -11.7919 129 120 111 
0.321312 -2.04243 -12.6499 65 26 31 
0.0953115 -0.142431 -12.5019 131 120 118 
-2.98169 -2.42343 -12.1209 65 72 54 
-0.497689 -1.08643 -11.7489 98 131 114 
0.716312 -0.783431 -12.5679 105 96 91 
-0.716689 -1.38743 -12.6529 128 117 111 
-1.05669 -1.31843 -12.6829 60 20 28 
0.634311 -1.86243 -12.9489 52 22 24 
0.550312 -0.962431 -10.5749 84 100 61 
-0.297689 -2.22443 -12.5129 102 103 105 
-0.201689 -1.39543 -12.1519 80 104 78 
0.868311 -0.802431 -12.6539 55 26 31 
0.610312 -0.767431 -11.3609 89 95 51 
-0.800689 -0.356431 -12.5659 66 26 34 
0.738311 -0.155431 -10.5609 87 96 77 
-0.943689 -1.47543 -12.8919 57 21 25 
-0.688689 -2.21743 -12.6329 41 16 20 
-2.61269 -2.19943 -11.9029 133 107 108 
0.946311 -1.49243 -13.1069 54 34 36 
-0.108689 -2.04543 -13.2019 53 22 27 
0.541312 -1.50043 -10.0659 127 137 113 
0.414311 -2.02343 -12.5809 90 30 40 
0.455312 -1.62043 -12.6439 109 98 92 
-0.0816885 -0.872431 -12.5589 81 72 65 
-0.842689 -1.82643 -12.8139 53 22 27 
0.737311 -0.706431 -13.2639 135 109 146 
-0.528688 -1.05543 -12.6639 44 36 33 
-1.05669 -0.585431 -12.6599 83 76 68 
0.0103115 -2.28043 -11.2509 88 105 63 
-0.365689 -1.49143 -12.6119 86 79 73 
0.648311 -0.537431 -13.5369 65 34 39 
-0.0586885 -0.738431 -12.5459 64 63 58 
-0.821689 -1.95943 -12.7359 45 23 26 
0.754312 -0.792431 -13.4999 115 78 96 
0.129311 -0.764431 -12.5599 97 88 79 
-0.0176885 -0.508431 -12.5639 106 93 87 
-0.412688 -0.365431 -12.9419 35 20 25 
-0.786689 -0.879431 -12.6719 101 92 87 
0.930312 -1.24443 -13.0479 54 45 76 
-0.631689 -1.37243 -12.6889 81 74 66 
-0.244689 -0.455431 -13.5519 45 25 26 
-0.0426885 -0.370431 -12.5959 87 78 71 
-1.08869 -1.83743 -10.6509 118 145 94 
0.421311 -1.89443 -13.2299 58 26 31 
0.850312 -1.04343 -13.1789 191 159 180 
-1.01469 -1.76443 -10.7749 112 145 102 
0.183311 -2.07043 -12.5049 55 44 48 
0.674312 -1.79543 -13.4429 71 39 42 
-0.0526885 -1.98843 -13.5109 58 28 30 
-0.0946885 -1.96643 -12.6019 127 117 107 
0.738311 -0.565431 -12.8729 52 26 29 
0.194311 -0.405431 -12.5479 78 69 64 
-0.816688 -1.70943 -11.1269 74 100 53 
0.0603115 -2.11143 -12.4939 169 147 149 
-0.421688 -1.16843 -11.7219 93 114 49 
0.133311 -0.352431 -10.6399 70 87 51 
0.0923115 -0.420431 -10.8859 67 79 59 
0.405311 0.085569 -10.2959 94 114 103 
1.02031 0.276569 -9.94993 141 158 142 
-0.758689 -0.483431 -12.6239 116 109 99 
0.788311 -1.78943 -12.9839 55 23 28 
0.803311 -0.696431 -12.8039 55 30 34 
-0.965689 -1.48743 -12.5979 31 36 40 
0.865312 -0.937431 -12.7829 56 27 32 
0.885311 -1.14343 -13.1959 193 161 182 
0.686311 -0.525431 -13.0149 56 25 31 
-0.853688 -1.15743 -13.5109 32 17 20 
-0.276689 -0.937431 -11.9139 38 53 32 
1.23131 0.056569 -10.3629 207 204 197 
1.18331 -0.077431 -12.5159 86 81 61 
-0.201689 -1.05143 -12.2349 62 79 43 
-0.233689 -2.17643 -12.5449 39 45 45 
-0.791689 -0.547431 -13.1819 45 25 26 
0.903311 -1.23343 -13.2939 133 107 142 
-0.515688 -0.338431 -12.7689 31 17 17 
0.132311 -1.55843 -12.5699 127 117 108 
-0.118689 -0.164431 -12.5759 45 26 28 
0.536312 -1.44043 -10.1469 142 155 137 
-0.682689 -2.22243 -12.6259 42 17 20 
