-2.7966010 -9.9978931 -180.3303510 0.133 0.204 0.102
-2.7766011 -10.0178933 -179.9703687 0.141 0.192 0.120
-2.7566012 -10.0178933 -180.9103489 0.121 0.200 0.102
-2.7466011 -14.9878934 -180.0903529 0.169 0.161 0.109
-2.7166009 -9.6178930 -181.5403551 0.117 0.192 0.081
-2.7066008 -9.3578929 -181.5403551 0.121 0.196 0.077
-2.6866009 -10.0078927 -181.5603673 0.121 0.192 0.090
-2.6866009 -9.9978931 -179.6103716 0.157 0.215 0.141
-2.5366014 -10.6478930 -180.6603521 0.165 0.243 0.145
-2.5266011 -10.6378933 -181.2803596 0.117 0.208 0.098
-2.4966011 -13.7678925 -180.9203476 0.219 0.266 0.210
-2.4866010 -14.9378926 -181.2003553 0.121 0.231 0.069
-2.4866010 -14.8878926 -180.4303527 0.141 0.172 0.077
-2.4866010 -14.7578930 -180.0403595 0.094 0.074 0.051
-2.4866010 -14.2478934 -180.2703738 0.070 0.070 0.063
-2.4866010 -14.1878929 -180.3603470 0.066 0.086 0.069
-2.4866010 -13.7278931 -181.0703725 0.200 0.255 0.188
-2.4866010 -13.2978922 -181.8003654 0.180 0.274 0.149
-2.4866010 -10.7478937 -180.9203476 0.133 0.212 0.106
-2.4866010 -10.6978929 -180.4703474 0.172 0.266 0.163
-2.4866010 -10.6178932 -180.3003550 0.161 0.247 0.155
-2.4866010 -10.5378944 -180.1303476 0.145 0.235 0.133
-2.4866010 -10.1378923 -179.5003563 0.102 0.169 0.098
-2.4866010 -9.9878935 -179.1703701 0.196 0.258 0.219
-2.4866010 -9.7678928 -180.8603704 0.145 0.227 0.167
-2.4866010 -9.6678948 -180.9503585 0.141 0.231 0.167
-2.4866010 -9.3478924 -181.2203676 0.145 0.212 0.137
-2.4866010 -9.3278931 -181.8203628 0.141 0.219 0.120
-2.4766009 -13.7778940 -181.0103655 0.212 0.266 0.206
-2.4766009 -10.6378933 -180.2703738 0.157 0.243 0.152
-2.4466009 -14.5478928 -180.0903529 0.000 0.000 0.000
-2.4366009 -9.8578930 -178.9703518 0.286 0.353 0.327
-2.4066009 -10.0178933 -181.0403615 0.145 0.215 0.152
-2.3966010 -9.9978931 -179.0103465 0.247 0.314 0.288
-2.3866009 -13.8978930 -181.5403551 0.243 0.286 0.223
-2.2866011 -11.3078924 -181.0103655 0.133 0.192 0.109
-2.2866011 -11.2478947 -180.9003651 0.208 0.262 0.202
-2.2066010 -11.9578931 -181.4703494 0.169 0.235 0.163
-2.1166010 -11.9378939 -180.9003651 0.137 0.188 0.116
-2.1166010 -9.6978927 -178.4003675 0.157 0.169 0.133
-2.0966011 -10.6778927 -179.1703701 0.262 0.368 0.332
-2.0466011 -10.6678931 -179.0203750 0.314 0.415 0.404
-2.0066011 -16.8678928 -181.0703725 0.172 0.337 0.090
-1.9866009 -16.8578923 -180.8503568 0.204 0.364 0.128
-1.9766011 -16.8578923 -179.9603552 0.212 0.349 0.128
-1.9666010 -16.8578923 -179.3703586 0.212 0.329 0.116
-1.9566009 -12.5078922 -181.5103441 0.243 0.368 0.106
-1.9366010 -10.0178933 -178.3903539 0.376 0.467 0.443
-1.8866010 -11.2678930 -179.3903559 0.321 0.404 0.408
-1.8666008 -16.9578940 -181.0703725 0.247 0.368 0.241
-1.8666008 -16.8878939 -180.8903515 0.255 0.376 0.249
-1.8666008 -16.8678928 -181.5303713 0.215 0.321 0.192
-1.8666008 -16.8678928 -180.6403548 0.266 0.400 0.270
-1.8666008 -16.8478936 -181.6303581 0.208 0.314 0.184
-1.8666008 -16.8378949 -179.1003644 0.333 0.439 0.309
-1.8666008 -16.7778935 -180.2803576 0.270 0.400 0.278
-1.8666008 -14.8978941 -181.5803498 0.121 0.227 0.065
-1.8666008 -14.8578929 -181.0803562 0.165 0.266 0.112
-1.8666008 -12.7478931 -181.7203462 0.251 0.407 0.120
-1.8666008 -12.2978939 -181.0103655 0.204 0.262 0.171
-1.8666008 -11.8578933 -181.6903502 0.094 0.153 0.063
-1.8666008 -11.3078924 -179.4103533 0.337 0.419 0.422
-1.8666008 -11.1978939 -179.2603433 0.318 0.435 0.443
-1.8666008 -10.4678925 -179.0503561 0.090 0.149 0.059
-1.8666008 -10.3478925 -178.9703518 0.109 0.169 0.077
-1.8666008 -9.8578930 -178.5903573 0.094 0.137 0.069
-1.8566010 -14.3078938 -181.4403534 0.192 0.266 0.141
-1.8566010 -14.2078940 -181.6603690 0.235 0.345 0.196
-1.8566010 -12.5578931 -181.3903600 0.231 0.368 0.109
-1.8566010 -10.7278926 -178.8403541 0.337 0.451 0.443
-1.8566010 -9.6878931 -178.2503575 0.117 0.165 0.109
-1.8366012 -16.2278935 -181.3603491 0.157 0.310 0.085
-1.8366012 -14.7878937 -180.8403581 0.153 0.247 0.106
-1.8166010 -16.8678928 -179.0103465 0.321 0.427 0.296
-1.8166010 -10.0278938 -178.3103496 0.361 0.463 0.426
-1.8066011 -16.7478919 -180.8603704 0.251 0.372 0.245
-1.8066011 -12.1378927 -180.9003651 0.121 0.169 0.112
-1.7966011 -11.5678934 -179.6803772 0.113 0.169 0.102
-1.7766010 -16.2278935 -180.8703542 0.172 0.329 0.094
-1.7466010 -16.2378922 -180.1903546 0.180 0.329 0.098
-1.7466010 -14.9978939 -181.3703626 0.149 0.251 0.073
-1.6966010 -16.2278935 -179.5403659 0.172 0.329 0.094
-1.6966010 -11.9278925 -179.8103452 0.231 0.294 0.282
-1.6366008 -15.6078916 -180.0503582 0.219 0.368 0.167
-1.6366008 -15.5578936 -180.5003583 0.169 0.294 0.109
-1.6366008 -12.5278942 -180.8803529 0.208 0.258 0.155
-1.6266010 -11.9378939 -179.6303540 0.208 0.266 0.245
-1.6066012 -14.4478930 -181.6803515 0.145 0.215 0.112
-1.6066012 -11.3578932 -179.0303588 0.321 0.431 0.435
-1.5666010 -16.1878932 -179.0303588 0.219 0.337 0.133
-1.5066010 -13.1478934 -181.5003604 0.262 0.419 0.141
-1.4766010 -16.7978927 -178.4003675 0.204 0.314 0.152
-1.4766010 -14.9278929 -180.2803576 0.192 0.286 0.145
-1.4766010 -14.3478932 -180.8803529 0.235 0.364 0.188
-1.4466010 -15.5878942 -179.5603484 0.227 0.364 0.137
-1.3866010 -12.5578931 -180.2303493 0.176 0.223 0.145
-1.3766008 -10.6478930 -178.3603728 0.341 0.439 0.426
-1.3666010 -15.6678930 -179.3003678 0.266 0.388 0.223
-1.2866009 -11.9378939 -179.0303588 0.208 0.282 0.257
-1.2366010 -16.7078935 -178.1603545 0.325 0.443 0.300
-1.2366010 -16.4378937 -178.7403524 0.239 0.357 0.206
-1.2366010 -16.1578916 -178.5103679 0.212 0.325 0.137
-1.2366010 -15.5478930 -179.0903658 0.208 0.333 0.141
-1.2366010 -14.9178933 -179.7303557 0.172 0.286 0.106
-1.2366010 -14.3078938 -180.7103604 0.239 0.376 0.149
-1.2366010 -14.0378932 -181.2903583 0.372 0.498 0.344
-1.2366010 -13.9178932 -181.6003621 0.372 0.510 0.344
-1.2366010 -13.0878948 -180.8503568 0.184 0.294 0.094
-1.2366010 -12.6878927 -180.0803542 0.145 0.200 0.102
-1.2366010 -12.4378931 -179.6303540 0.172 0.219 0.171
-1.2366010 -12.3878941 -181.3903600 0.090 0.137 0.081
-1.2366010 -12.2978939 -180.5403531 0.094 0.141 0.085
-1.2366010 -12.1578928 -180.1703572 0.090 0.145 0.085
-1.2366010 -11.8578933 -178.8803339 0.231 0.321 0.296
-1.2366010 -11.5878927 -179.4003397 0.106 0.161 0.094
-1.2366010 -11.2178931 -179.0703535 0.106 0.157 0.090
-1.2366010 -10.5978930 -178.6303520 0.106 0.165 0.081
-1.2366010 -9.8278932 -177.8003573 0.639 0.718 0.674
-1.2266010 -14.3878935 -180.7103604 0.294 0.411 0.278
-1.2266010 -13.5678938 -181.2003553 0.282 0.455 0.159
-1.2266010 -10.9678935 -178.4003675 0.278 0.400 0.375
-1.2266010 -10.8278934 -178.7703484 0.106 0.157 0.077
-1.2266010 -10.1578934 -177.9903620 0.451 0.568 0.598
-1.2066010 -15.5978929 -178.9903492 0.208 0.325 0.120
-1.2066010 -15.0378933 -179.7003597 0.258 0.357 0.231
-1.2066010 -11.9778933 -178.9303571 0.208 0.282 0.257
-1.1866010 -12.4978945 -179.6003580 0.149 0.196 0.141
-1.1766010 -14.9578936 -179.5803607 0.176 0.302 0.116
-1.1666010 -13.1578930 -180.8303744 0.196 0.302 0.102
-1.1666010 -9.9078929 -177.7303517 0.702 0.804 0.800
-1.1566010 -16.1978938 -178.4003675 0.258 0.364 0.188
-1.1566010 -15.6778935 -179.0503561 0.251 0.392 0.202
-1.1266010 -11.4578931 -178.3703566 0.235 0.314 0.278
-1.0666010 -12.4978945 -181.3303530 0.098 0.145 0.090
-1.0466011 -12.0478924 -179.7503680 0.094 0.141 0.085
-0.9666010 -12.4978945 -179.0303588 0.145 0.212 0.141
-0.9366010 -10.2778943 -177.7603477 0.314 0.447 0.443
-0.9166010 -14.3478932 -180.2503616 0.227 0.376 0.152
-0.8966010 -16.8578923 -177.7703762 0.298 0.400 0.284
-0.8766010 -13.1778931 -180.2703738 0.176 0.258 0.090
-0.8766010 -11.8878940 -178.3403605 0.262 0.364 0.327
-0.8466010 -10.6978929 -177.7703762 0.282 0.388 0.361
-0.7466010 -14.9878934 -178.9703518 0.184 0.306 0.145
-0.6966010 -13.6578931 -180.4903597 0.219 0.353 0.112
-0.6966010 -11.2578925 -177.7803600 0.227 0.310 0.274
-0.6466010 -15.5978929 -178.3203632 0.266 0.404 0.184
-0.6266010 -13.2178925 -179.6003580 0.149 0.227 0.090
-0.6166010 -16.5078938 -178.1803370 0.266 0.380 0.192
-0.6166010 -16.0778929 -177.9803634 0.321 0.455 0.253
-0.6166010 -15.4878935 -178.7703484 0.318 0.427 0.270
-0.6166010 -15.0778946 -179.0903658 0.357 0.459 0.313
-0.6166010 -14.9678923 -178.8203567 0.180 0.290 0.128
-0.6166010 -14.6078933 -179.4003397 0.239 0.384 0.180
-0.6166010 -14.3878935 -179.8703671 0.368 0.513 0.353
-0.6166010 -14.3378945 -180.0003648 0.239 0.388 0.163
-0.6166010 -13.9878932 -180.3003550 0.274 0.427 0.180
-0.6166010 -13.8678933 -181.0903698 0.443 0.580 0.369
-0.6166010 -13.6478925 -181.4303547 0.474 0.604 0.387
-0.6166010 -13.5278935 -179.8403561 0.172 0.274 0.090
-0.6166010 -13.2278930 -180.8403581 0.133 0.188 0.090
-0.6166010 -13.1378938 -179.4103533 0.133 0.192 0.063
-0.6166010 -12.9078943 -180.9803545 0.129 0.188 0.098
-0.6166010 -12.8978929 -180.8103472 0.133 0.188 0.098
-0.6166010 -12.6478933 -178.5903573 0.141 0.212 0.116
-0.6166010 -12.6078930 -180.0303608 0.090 0.137 0.081
-0.6166010 -12.4878930 -179.7603667 0.090 0.137 0.081
-0.6166010 -12.3978937 -178.2903522 0.200 0.298 0.210
-0.6166010 -12.2178933 -179.3303490 0.086 0.133 0.077
-0.6166010 -11.7278928 -177.9403538 0.255 0.364 0.309
-0.6166010 -11.4578931 -178.5203516 0.106 0.157 0.085
-0.6166010 -11.4378929 -177.7203530 0.266 0.368 0.317
-0.6166010 -11.2178931 -177.6403636 0.251 0.341 0.300
-0.6166010 -10.4978932 -177.5103658 0.357 0.502 0.469
-0.6166010 -9.9178934 -177.2403568 0.443 0.545 0.508
-0.6066010 -15.9678943 -178.4803569 0.314 0.439 0.253
-0.6066010 -15.4678924 -178.3703566 0.251 0.364 0.176
-0.6066010 -13.5678938 -181.5403551 0.470 0.600 0.392
-0.6066010 -12.9078943 -179.0403575 0.098 0.169 0.073
-0.6066010 -11.9678928 -178.9703518 0.094 0.145 0.077
-0.6066010 -11.1378925 -178.3103496 0.109 0.161 0.090
-0.6066010 -10.6178932 -178.0003458 0.117 0.176 0.094
-0.5866010 -16.8678928 -177.5403619 0.270 0.364 0.239
-0.5766010 -12.5278942 -178.3403605 0.157 0.243 0.152
-0.5166010 -9.8778931 -177.1503538 0.541 0.631 0.606
-0.4566010 -16.1578916 -177.7503639 0.310 0.423 0.249
-0.4066010 -12.0778931 -177.7503639 0.262 0.368 0.292
-0.4066010 -10.0678932 -177.1403551 0.278 0.376 0.361
-0.3566010 -11.1578936 -178.0003458 0.102 0.153 0.081
-0.3266010 -13.7778940 -179.6303540 0.192 0.286 0.098
-0.3166010 -12.5178928 -177.7703762 0.176 0.270 0.167
-0.3066010 -14.9778929 -178.4003675 0.192 0.294 0.141
-0.2866010 -13.1578930 -179.0303588 0.106 0.169 0.055
-0.2366010 -10.6278937 -177.1403551 0.247 0.353 0.332
-0.1566010 -15.4878935 -177.7703762 0.223 0.325 0.188
-0.1366010 -11.4478935 -177.1203578 0.188 0.266 0.219
-0.1066010 -13.1278932 -178.4003675 0.086 0.169 0.047
-0.0366010 -12.1978931 -177.1403551 0.208 0.306 0.231
-0.0266010 -16.7078935 -177.1503538 0.235 0.306 0.202
-0.0066010 -14.2878946 -179.4603616 0.396 0.541 0.340
0.0133990 -16.9878937 -177.4303615 0.376 0.482 0.321
0.0133990 -16.5278930 -177.1803796 0.235 0.310 0.192
0.0133990 -16.1078926 -177.7703762 0.298 0.427 0.257
0.0133990 -15.7878939 -177.9103726 0.337 0.459 0.292
0.0133990 -15.5878942 -178.0203730 0.337 0.467 0.296
0.0133990 -15.5478930 -177.5203496 0.290 0.392 0.245
0.0133990 -14.7878937 -178.4703732 0.376 0.494 0.353
0.0133990 -14.4978929 -179.0503561 0.388 0.510 0.349
0.0133990 -14.3678933 -179.3203652 0.274 0.427 0.180
0.0133990 -14.1078942 -179.6903461 0.419 0.545 0.349
0.0133990 -13.7178926 -180.3003550 0.411 0.549 0.336
0.0133990 -13.0878948 -179.7403544 0.129 0.184 0.094
0.0133990 -13.0778933 -177.8103709 0.137 0.235 0.120
0.0133990 -13.0578941 -179.4203669 0.109 0.161 0.081
0.0133990 -12.8578935 -177.3803532 0.161 0.262 0.149
0.0133990 -12.6478933 -178.7003428 0.086 0.129 0.065
0.0133990 -12.0978924 -177.0303547 0.227 0.325 0.249
0.0133990 -11.8178930 -177.0103574 0.200 0.282 0.223
0.0133990 -11.5478924 -177.7303517 0.106 0.165 0.081
0.0133990 -11.2278927 -176.9103557 0.204 0.274 0.227
0.0133990 -10.9678935 -177.4603575 0.121 0.180 0.106
0.0133990 -9.9078929 -176.8803596 0.235 0.282 0.227
0.0233990 -16.8378949 -177.0603508 0.266 0.337 0.235
0.0233990 -13.6078931 -179.4503629 0.169 0.251 0.081
0.0233990 -13.3178942 -178.9303571 0.125 0.204 0.065
0.0233990 -12.3478938 -178.2803535 0.106 0.157 0.077
0.0233990 -11.6878925 -177.8003573 0.109 0.169 0.094
0.0233990 -10.5878944 -177.2703528 0.125 0.196 0.109
0.0233990 -10.0478940 -176.9903600 0.165 0.231 0.155
0.0333990 -13.2178925 -178.3803552 0.109 0.176 0.051
0.0433990 -14.8178944 -178.3903539 0.372 0.490 0.349
0.0433990 -13.1478934 -179.9003631 0.137 0.192 0.102
0.0633990 -12.5478934 -177.1003604 0.196 0.294 0.206
0.1233990 -13.1378938 -177.6303351 0.137 0.235 0.109
0.1533990 -16.1278937 -177.1303564 0.298 0.411 0.292
0.1833990 -11.9578931 -177.7403504 0.102 0.172 0.085
0.2133990 -15.4778929 -177.2903651 0.200 0.306 0.176
0.2633990 -14.3578928 -179.0103465 0.325 0.502 0.245
0.3033990 -15.5378943 -177.1403551 0.204 0.310 0.180
0.3033990 -9.9778930 -176.4903516 0.149 0.215 0.176
0.3233990 -11.6778929 -176.5203774 0.129 0.200 0.137
0.3333990 -13.1278932 -177.1403551 0.137 0.235 0.116
0.3333990 -12.4378931 -176.5303612 0.219 0.310 0.239
0.3333990 -10.1878932 -176.5303612 0.133 0.212 0.167
0.3433990 -14.9478940 -177.7803600 0.247 0.376 0.206
0.3533990 -12.5478934 -176.5303612 0.192 0.282 0.202
0.3633990 -11.1978939 -176.5203774 0.125 0.192 0.120
0.4733990 -14.2778931 -178.4003675 0.278 0.443 0.159
0.5433990 -13.2078938 -178.4103513 0.094 0.149 0.081
0.5733990 -13.1478934 -176.5003651 0.149 0.247 0.128
0.6033990 -16.4378937 -176.5303612 0.302 0.419 0.309
0.6333990 -16.9278923 -176.8703610 0.310 0.411 0.266
0.6333990 -16.7278945 -176.9303381 0.282 0.392 0.231
0.6333990 -16.5178925 -176.4903516 0.274 0.384 0.284
0.6333990 -16.1478948 -177.1203578 0.329 0.439 0.278
0.6333990 -15.8578921 -177.2303581 0.384 0.486 0.332
0.6333990 -15.2578931 -176.8703610 0.212 0.337 0.192
0.6333990 -15.1078934 -177.1603525 0.235 0.364 0.188
0.6333990 -14.9878934 -177.6703596 0.361 0.486 0.332
0.6333990 -14.7578930 -177.9103726 0.455 0.576 0.412
0.6333990 -14.3978931 -178.5303503 0.467 0.580 0.400
0.6333990 -14.2578939 -178.1103462 0.290 0.419 0.141
0.6333990 -13.8478931 -179.2703718 0.415 0.545 0.336
0.6333990 -13.7078930 -179.3603450 0.262 0.364 0.188
0.6333990 -13.6678936 -177.9603511 0.157 0.239 0.069
0.6333990 -13.5578932 -177.7603477 0.133 0.215 0.063
0.6333990 -13.3978929 -178.6903590 0.129 0.180 0.102
0.6333990 -13.3878924 -176.9503653 0.161 0.255 0.128
0.6333990 -13.1178936 -176.2903631 0.153 0.258 0.137
0.6333990 -13.0778933 -177.9403538 0.106 0.153 0.098
0.6333990 -12.4778925 -177.4103492 0.098 0.157 0.065
0.6333990 -12.4078933 -176.0803461 0.227 0.318 0.253
0.6333990 -11.6478931 -177.0103574 0.117 0.188 0.094
0.6333990 -11.0978941 -176.8303514 0.153 0.223 0.128
0.6333990 -10.9278923 -176.2603670 0.184 0.258 0.184
0.6333990 -10.5578937 -176.6703576 0.113 0.180 0.109
0.6333990 -10.4478933 -176.3403416 0.137 0.204 0.141
0.6433990 -14.2178927 -178.7803620 0.451 0.560 0.369
0.6433990 -13.2578928 -176.5303612 0.149 0.247 0.120
0.6433990 -12.6078930 -177.4603575 0.133 0.192 0.102
0.6433990 -11.8578933 -176.1203557 0.172 0.243 0.180
0.6733990 -12.0578930 -177.1003604 0.098 0.172 0.085
0.7033990 -15.5978929 -176.4603555 0.184 0.290 0.167
0.7133990 -15.7378949 -176.4903516 0.161 0.266 0.137
0.7533990 -12.7278939 -175.9003550 0.192 0.282 0.210
0.7633990 -12.3578934 -175.8903563 0.208 0.306 0.231
0.8033990 -12.5478934 -177.1403551 0.102 0.172 0.077
0.8333990 -11.6978930 -175.8703589 0.133 0.219 0.137
0.8533990 -13.1378938 -175.8203655 0.161 0.266 0.145
0.8633990 -14.3278930 -177.7303517 0.306 0.435 0.124
0.8833990 -16.2278935 -176.1803627 0.321 0.427 0.288
0.9133990 -11.2278927 -175.8803576 0.125 0.200 0.112
1.0033990 -16.0078928 -175.9003550 0.231 0.337 0.206
1.0533988 -16.7678930 -175.8903563 0.255 0.368 0.249
1.0933990 -14.9178933 -177.0903617 0.258 0.404 0.192
1.0933990 -10.4778931 -175.8803576 0.125 0.196 0.102
1.1033992 -15.6078916 -175.9003550 0.188 0.294 0.155
1.1233990 -13.7478942 -176.7103523 0.125 0.212 0.069
1.1233990 -13.1178936 -175.2403527 0.161 0.255 0.159
1.1333990 -13.1878937 -175.2603501 0.169 0.258 0.155
1.1933990 -13.2078938 -176.7303646 0.113 0.157 0.090
1.2033989 -13.7778940 -176.5003651 0.137 0.204 0.069
1.2033989 -12.4378931 -175.2603501 0.212 0.302 0.231
1.2633990 -16.6778918 -175.5403578 0.243 0.364 0.231
1.2633990 -16.5578946 -176.3503700 0.274 0.380 0.219
1.2633990 -16.2178930 -175.4303575 0.247 0.361 0.249
1.2633990 -15.5478930 -175.7503450 0.184 0.290 0.167
1.2633990 -15.4978931 -176.7403632 0.329 0.439 0.288
1.2633990 -15.3378928 -176.0403663 0.231 0.353 0.192
1.2633990 -14.9478940 -176.9803613 0.400 0.541 0.353
1.2633990 -14.3878935 -177.7003706 0.419 0.549 0.332
1.2633990 -14.2878946 -177.8803617 0.431 0.541 0.340
1.2633990 -13.8278939 -177.3403585 0.215 0.302 0.109
1.2633990 -13.7078930 -177.7203530 0.141 0.200 0.085
1.2633990 -13.5678938 -177.0003438 0.106 0.137 0.077
1.2633990 -13.4578934 -175.2103567 0.145 0.243 0.124
1.2633990 -12.8678931 -176.4903516 0.109 0.172 0.069
1.2633990 -12.7878934 -175.1003712 0.200 0.290 0.210
1.2633990 -12.3278936 -176.4203608 0.106 0.176 0.073
1.2633990 -11.6378926 -176.3103455 0.113 0.184 0.090
1.2633990 -11.2578925 -175.4703522 0.141 0.231 0.116
1.2633990 -10.3078941 -175.7403612 0.145 0.215 0.128
1.2733990 -16.1978938 -176.4603555 0.357 0.459 0.305
1.2733990 -15.7478936 -176.6303629 0.235 0.337 0.192
1.2733990 -13.7578929 -176.1603504 0.117 0.208 0.094
1.2733990 -13.6378929 -175.5903661 0.153 0.251 0.137
1.2733990 -12.3378923 -175.1803607 0.196 0.286 0.214
1.2733990 -11.2178931 -175.4803658 0.133 0.223 0.109
1.2733990 -10.9578930 -176.1203557 0.157 0.223 0.149
1.2733990 -10.4178935 -176.0103554 0.129 0.184 0.116
1.2933990 -13.1378938 -176.5003651 0.102 0.161 0.069
1.2933990 -11.7878942 -175.2503663 0.145 0.231 0.149
1.3033990 -14.3678933 -177.1103740 0.318 0.435 0.159
1.3233989 -13.7478942 -175.9003550 0.145 0.223 0.112
1.3433991 -16.1678921 -175.2703637 0.243 0.337 0.235
1.3533990 -16.2978936 -175.2803624 0.258 0.349 0.245
1.4133990 -16.9578940 -175.2603501 0.231 0.357 0.202
1.4133990 -14.9878934 -176.4903516 0.329 0.474 0.270
1.4433990 -13.3978929 -174.6503562 0.169 0.258 0.155
1.4433990 -13.1178936 -174.6503562 0.184 0.278 0.192
1.4633990 -16.9178918 -176.0403663 0.231 0.325 0.184
1.4733990 -11.2178931 -175.2803624 0.129 0.219 0.106
1.4833992 -13.7578929 -175.2603501 0.149 0.247 0.128
1.6033992 -12.4778925 -174.6403575 0.188 0.270 0.202
1.6133990 -11.9178938 -175.9003550 0.125 0.184 0.102
1.6233990 -15.5878942 -175.2503663 0.212 0.325 0.202
1.6633988 -12.8178932 -175.9003550 0.106 0.161 0.069
1.6733990 -13.0478926 -174.2303669 0.212 0.306 0.219
1.6833990 -10.5778929 -175.2603501 0.125 0.204 0.106
1.6933989 -13.7678925 -174.4803637 0.157 0.235 0.128
1.7033990 -16.6578945 -174.6503562 0.196 0.286 0.171
1.7333990 -16.2178930 -174.6503562 0.188 0.266 0.159
1.7433992 -16.9178918 -174.6203601 0.215 0.333 0.198
1.7733990 -13.4278927 -174.0303636 0.180 0.274 0.171
1.7933990 -11.7078945 -174.6403575 0.165 0.255 0.152
1.8033988 -14.9078928 -175.8603603 0.329 0.463 0.227
1.8833990 -16.7978927 -175.5003482 0.204 0.306 0.167
1.8833990 -16.5578946 -174.4003445 0.196 0.286 0.176
1.8833990 -16.1678921 -175.8103520 0.243 0.337 0.210
1.8833990 -15.7878939 -174.7003645 0.165 0.262 0.137
1.8833990 -15.7678947 -176.0203540 0.329 0.435 0.296
1.8833990 -15.6078916 -174.9103516 0.176 0.282 0.159
1.8833990 -15.4678924 -176.1603504 0.380 0.486 0.349
1.8833990 -15.3478924 -175.3703505 0.278 0.427 0.235
1.8833990 -14.8978941 -176.4503568 0.467 0.584 0.387
1.8833990 -14.7778932 -175.8403629 0.318 0.443 0.196
1.8833990 -14.4078936 -176.8403649 0.439 0.556 0.353
1.8833990 -14.3378945 -176.8603474 0.407 0.525 0.327
1.8833990 -14.1578941 -175.8803576 0.212 0.294 0.124
1.8833990 -14.0478928 -176.4903516 0.133 0.192 0.077
1.8833990 -13.9678931 -174.7303605 0.141 0.219 0.109
1.8833990 -13.9478929 -174.4503677 0.141 0.219 0.109
1.8833990 -13.5378931 -175.6203622 0.090 0.133 0.069
1.8833990 -13.1278932 -173.9303619 0.215 0.318 0.219
1.8833990 -12.9978936 -174.0003675 0.219 0.318 0.231
1.8833990 -12.5378929 -175.5503714 0.106 0.169 0.065
1.8833990 -12.4578932 -174.2303669 0.184 0.274 0.196
1.8833990 -12.0078940 -175.6003499 0.121 0.196 0.109
1.8833990 -11.7878942 -174.5003462 0.165 0.251 0.167
1.8833990 -11.6078937 -175.5703539 0.129 0.188 0.106
1.8833990 -11.4878928 -174.6603549 0.153 0.223 0.128
1.8833990 -11.0578928 -174.8503447 0.161 0.255 0.128
1.8833990 -10.6678931 -175.5203754 0.145 0.212 0.141
1.8933992 -16.1378942 -174.3603498 0.169 0.266 0.141
1.8933992 -12.7778938 -174.0903556 0.227 0.321 0.235
1.8933992 -10.2778943 -175.3803492 0.145 0.204 0.128
1.9033990 -13.7678925 -173.9503592 0.165 0.255 0.141
1.9033990 -10.3578940 -175.0603467 0.161 0.231 0.128
2.0433990 -16.8578923 -174.0203649 0.192 0.274 0.152
2.0433990 -12.3778936 -174.0303636 0.200 0.290 0.210
2.0533991 -11.1878933 -174.6403575 0.180 0.262 0.133
2.0733990 -16.2278935 -173.9803404 0.172 0.266 0.133
2.0733990 -12.6078930 -175.2803624 0.109 0.169 0.077
2.0933987 -16.8378949 -175.2103567 0.192 0.282 0.171
2.1033990 -13.6078931 -173.3803600 0.157 0.243 0.152
2.1033990 -13.1678935 -175.2803624 0.113 0.176 0.073
2.1233987 -12.0978924 -175.2803624 0.137 0.204 0.128
2.1433991 -13.7778940 -173.3903438 0.149 0.227 0.116
2.1633990 -15.6178931 -174.6203601 0.215 0.341 0.196
2.1633990 -14.9578936 -175.2303541 0.349 0.470 0.235
2.2333988 -13.1178936 -173.3403653 0.200 0.302 0.196
2.2633988 -11.8678929 -174.0303636 0.141 0.227 0.145
2.2733991 -10.6078926 -174.6203601 0.137 0.231 0.106
2.3633991 -16.2578933 -175.1103550 0.223 0.314 0.198
2.3933989 -16.7178940 -173.3703613 0.172 0.251 0.141
2.4733986 -12.4778925 -173.3803600 0.161 0.251 0.149
2.4833989 -14.9678923 -174.6503562 0.321 0.435 0.171
2.5133989 -16.7378914 -173.1203645 0.161 0.262 0.124
2.5133989 -16.6878924 -174.6703535 0.212 0.306 0.180
2.5133989 -16.2378922 -174.9203503 0.270 0.361 0.245
2.5133989 -15.9678943 -173.6303568 0.184 0.302 0.167
2.5133989 -15.3578939 -174.4603515 0.290 0.435 0.231
2.5133989 -15.3078940 -175.4903495 0.431 0.545 0.371
2.5133989 -14.8478933 -175.6703705 0.423 0.541 0.327
2.5133989 -14.7478944 -174.7503728 0.345 0.467 0.198
2.5133989 -14.3578928 -174.4903624 0.180 0.258 0.112
2.5133989 -14.2978923 -174.0003675 0.137 0.204 0.077
2.5133989 -14.2078940 -175.2003580 0.129 0.184 0.094
2.5133989 -12.7978930 -173.1203645 0.172 0.262 0.184
2.5133989 -12.7278939 -174.6603549 0.113 0.184 0.090
2.5133989 -12.4578932 -173.3403653 0.161 0.251 0.149
2.5133989 -12.1378927 -173.5603511 0.141 0.227 0.137
2.5133989 -11.3378922 -174.9203503 0.117 0.176 0.102
2.5133989 -11.1978939 -174.9203503 0.141 0.200 0.124
2.5133989 -10.9578930 -174.2403507 0.169 0.262 0.137
2.5133989 -10.5778929 -174.8903692 0.137 0.215 0.116
2.5233992 -16.7278945 -174.6303588 0.208 0.302 0.176
2.5233992 -16.1578916 -173.3503640 0.180 0.270 0.155
2.5233992 -14.3878935 -174.6503562 0.196 0.278 0.109
2.5233992 -13.5678938 -174.7403592 0.094 0.141 0.063
2.5233992 -12.2878933 -174.7203618 0.137 0.204 0.128
2.5233992 -11.6378926 -173.8803387 0.172 0.255 0.180
2.5233992 -10.4878927 -174.4503677 0.161 0.223 0.120
2.5333990 -15.6478938 -175.2903610 0.407 0.513 0.375
2.5333990 -14.3378945 -175.3803492 0.145 0.208 0.106
2.5333990 -13.0278934 -174.6403575 0.102 0.161 0.069
2.5333990 -11.3078924 -174.0603596 0.188 0.310 0.145
2.5533992 -15.6978928 -174.1003543 0.349 0.498 0.313
2.5533992 -13.1678935 -174.6203601 0.117 0.176 0.085
2.5533992 -12.4078933 -174.6503562 0.145 0.215 0.120
2.6133987 -11.6878925 -173.7503707 0.172 0.258 0.176
2.6133987 -11.1578936 -174.0303636 0.145 0.243 0.128
2.6233990 -15.4978931 -175.2603501 0.463 0.584 0.422
2.6333991 -14.3978931 -173.9603579 0.153 0.219 0.085
2.6633991 -15.6078916 -174.0103513 0.235 0.361 0.198
2.7433990 -14.3778939 -173.3403653 0.113 0.176 0.073
2.8233991 -16.8678928 -173.9603579 0.215 0.298 0.176
2.8533991 -13.9878932 -174.2603481 0.082 0.133 0.065
2.8733991 -11.8478928 -173.3803600 0.149 0.239 0.159
2.8833989 -13.4978946 -174.0303636 0.113 0.165 0.094
2.9233990 -12.8378924 -174.0303636 0.153 0.212 0.120
3.0433992 -10.6078926 -173.9803404 0.172 0.251 0.141
3.0733990 -15.5278929 -173.3503640 0.306 0.443 0.223
3.0933991 -14.3978931 -173.9303619 0.113 0.161 0.081
3.1333989 -16.7878941 -173.3403653 0.212 0.290 0.180
3.1333989 -16.7178940 -173.4403521 0.208 0.286 0.176
3.1333989 -16.1878932 -173.9203632 0.310 0.404 0.270
3.1333989 -15.6178931 -174.0903556 0.423 0.525 0.371
3.1333989 -15.3978933 -173.2603610 0.388 0.525 0.274
3.1333989 -14.7978934 -174.2503494 0.243 0.357 0.167
3.1333989 -14.7978934 -173.1303632 0.219 0.310 0.145
3.1333989 -14.4778928 -173.9303619 0.106 0.157 0.077
3.1333989 -14.2178927 -173.5703796 0.078 0.129 0.059
3.1333989 -13.9478929 -173.3803600 0.090 0.137 0.081
3.1333989 -13.4278927 -173.4603494 0.098 0.149 0.069
3.1333989 -13.0778933 -173.5703796 0.109 0.157 0.077
3.1333989 -12.4378931 -173.7503707 0.172 0.262 0.152
3.1333989 -11.8178930 -174.0003675 0.133 0.208 0.098
3.1333989 -11.5078939 -174.1003543 0.137 0.212 0.124
3.1333989 -11.4778941 -173.3403653 0.235 0.361 0.206
3.1333989 -11.2078935 -174.1703600 0.157 0.208 0.137
3.1333989 -11.0878926 -173.6003458 0.184 0.294 0.145
3.1333989 -10.5678933 -174.1403639 0.204 0.258 0.167
3.1433990 -13.5978935 -173.3803600 0.090 0.141 0.073
3.1533991 -15.6378932 -174.0603596 0.435 0.537 0.383
3.1533991 -10.5578937 -173.9503592 0.329 0.392 0.284
3.1733990 -15.6178931 -174.0003675 0.435 0.537 0.383
3.2133989 -13.0678928 -173.3903438 0.094 0.153 0.069
3.3133994 -11.2178931 -173.3703613 0.192 0.314 0.152
3.7633989 -11.7278928 -173.1403470 0.145 0.223 0.124
3.7633989 -11.0678943 -173.4103560 0.169 0.243 0.155
3.7633989 -11.0078929 -173.4003574 0.161 0.235 0.149
-4.9866010 -13.8178933 -172.5103557 0.286 0.388 0.133
-4.9866010 -13.8078928 -171.9203591 0.255 0.333 0.133
-4.9866010 -13.4278927 -171.6903597 0.502 0.568 0.392
-4.9766013 -13.3078927 -172.3703593 0.525 0.600 0.418
-4.9766013 -13.2578928 -172.7903634 0.474 0.580 0.371
-4.9666008 -13.7078930 -171.5303659 0.262 0.364 0.124
2.4633990 -13.4978946 -172.7603525 0.204 0.306 0.206
2.5033988 -13.8078928 -172.6803631 0.141 0.231 0.128
2.5133989 -13.8278939 -172.6703644 0.141 0.231 0.128
2.5133989 -13.6878928 -172.6603508 0.165 0.258 0.163
2.5133989 -13.1678935 -172.8703529 0.200 0.310 0.219
2.5233992 -14.0278954 -172.9303598 0.137 0.208 0.106
2.5933990 -13.1178936 -172.7603525 0.208 0.318 0.227
2.7033989 -16.6578945 -172.7603525 0.192 0.270 0.171
2.7533988 -13.8278939 -172.1403450 0.200 0.290 0.188
2.7733990 -13.6878928 -172.1003503 0.231 0.314 0.245
2.9033991 -14.3778939 -172.7103591 0.113 0.169 0.069
2.9233990 -16.2378922 -172.6903468 0.192 0.318 0.171
2.9633990 -13.1078931 -172.1003503 0.227 0.321 0.235
2.9833990 -12.3978937 -172.7603525 0.192 0.290 0.206
3.0133990 -16.8178920 -172.0603555 0.204 0.302 0.188
3.0533990 -13.9778936 -171.5303659 0.215 0.314 0.198
3.0633991 -14.3878935 -172.1003503 0.125 0.196 0.102
3.1133990 -13.6578931 -171.4903563 0.247 0.349 0.249
3.1333989 -16.8078933 -171.8403697 0.169 0.262 0.128
3.1333989 -16.1278937 -172.5503504 0.176 0.290 0.167
3.1333989 -15.8378929 -173.0303466 0.258 0.376 0.227
3.1333989 -14.6478927 -172.7303416 0.133 0.196 0.081
3.1333989 -14.3778939 -171.8203574 0.145 0.219 0.109
3.1333989 -14.2978923 -171.7103571 0.141 0.215 0.106
3.1333989 -13.9778936 -171.3803411 0.219 0.321 0.214
3.1333989 -13.5478936 -171.5303659 0.243 0.345 0.245
3.1333989 -13.3678941 -171.6503501 0.243 0.357 0.239
3.1333989 -13.0978925 -171.7903614 0.212 0.310 0.223
3.1333989 -12.7278939 -172.1703559 0.188 0.274 0.192
3.1433990 -16.3478926 -172.2503603 0.169 0.286 0.152
3.1533991 -12.4778925 -172.3903716 0.188 0.302 0.184
3.1633989 -12.0678926 -172.8103608 0.192 0.290 0.214
3.2833992 -13.1078931 -171.4703590 0.227 0.329 0.231
3.3033991 -16.8478936 -171.5103388 0.180 0.282 0.137
3.3033991 -14.3978931 -171.4403480 0.141 0.215 0.098
3.3333991 -12.4178948 -172.1303612 0.204 0.306 0.192
3.3433991 -14.0678929 -172.7303416 0.082 0.129 0.073
3.3433991 -13.0078932 -171.4403480 0.149 0.243 0.149
3.3733987 -15.0178932 -172.7603525 0.266 0.353 0.159
3.3733987 -13.6278933 -172.7703661 0.109 0.153 0.098
3.3933991 -14.0378932 -170.8903462 0.200 0.294 0.206
3.4033989 -11.7278928 -172.7803648 0.180 0.274 0.180
3.4133990 -16.2278935 -172.0903665 0.212 0.302 0.188
3.4533993 -13.7078930 -170.8803624 0.235 0.333 0.245
3.5233991 -14.3878935 -170.8103418 0.153 0.258 0.137
3.5833991 -15.0178932 -172.1503586 0.235 0.306 0.141
3.6133991 -13.0878948 -170.8203554 0.141 0.255 0.145
3.6233990 -12.4478955 -171.5203673 0.208 0.306 0.192
3.7133989 -14.0378932 -170.2703685 0.235 0.333 0.249
3.7633989 -16.6678932 -171.0503548 0.172 0.262 0.149
3.7633989 -16.3578931 -172.5703627 0.357 0.463 0.325
3.7633989 -16.1478948 -172.6603508 0.368 0.486 0.353
3.7633989 -15.9778930 -171.9303429 0.298 0.419 0.253
3.7633989 -15.8078931 -172.8103608 0.423 0.529 0.361
3.7633989 -15.6178931 -172.1103638 0.380 0.502 0.266
3.7633989 -15.4178934 -172.8603542 0.419 0.529 0.327
3.7633989 -14.6378931 -170.6003547 0.157 0.247 0.137
3.7633989 -14.6178938 -172.0603555 0.070 0.121 0.055
3.7633989 -14.3478932 -171.7703640 0.090 0.141 0.073
3.7633989 -14.2078940 -170.2103615 0.247 0.337 0.266
3.7633989 -13.7178926 -171.8303561 0.098 0.149 0.081
3.7633989 -13.5878930 -170.3203619 0.180 0.274 0.171
3.7633989 -12.9778925 -170.5703586 0.192 0.294 0.196
3.7633989 -12.9378932 -172.2603589 0.149 0.208 0.116
3.7633989 -12.6978932 -170.9303707 0.184 0.274 0.171
3.7633989 -12.3178940 -171.4003533 0.215 0.325 0.227
3.7633989 -12.1578928 -171.7003584 0.188 0.274 0.184
3.7633989 -12.0778931 -172.8803515 0.176 0.255 0.155
3.7633989 -11.5678934 -172.5003719 0.239 0.376 0.219
3.7733992 -16.8078933 -170.8903462 0.278 0.396 0.262
3.7733992 -15.6178931 -172.7803648 0.467 0.580 0.392
3.7733992 -14.8578929 -172.7303416 0.121 0.176 0.077
3.7733992 -14.7778932 -171.1103618 0.125 0.196 0.094
3.7733992 -13.0678928 -172.1503586 0.149 0.227 0.120
3.7733992 -12.4278925 -172.5703627 0.141 0.219 0.120
3.7733992 -11.8378941 -172.1403450 0.204 0.306 0.167
3.7833990 -16.8678928 -172.1203625 0.227 0.302 0.176
3.7933991 -14.9378926 -172.8203595 0.137 0.212 0.094
3.8033992 -14.3878935 -170.2403575 0.184 0.286 0.171
3.8033992 -13.5578932 -170.2703685 0.192 0.286 0.184
3.8233991 -14.2078940 -171.5303659 0.094 0.145 0.077
3.8433990 -11.8878940 -172.8803515 0.145 0.215 0.120
3.8433990 -11.2378933 -172.7403551 0.188 0.310 0.176
-5.0066002 -13.1678935 -158.3903730 0.258 0.372 0.284
-4.9866010 -14.9778929 -160.9803587 0.157 0.255 0.102
-4.9866010 -14.6178938 -160.8603597 0.137 0.243 0.120
-4.9866010 -14.3378945 -160.6003642 0.133 0.212 0.112
-4.9866010 -13.9278937 -160.0003690 0.282 0.396 0.309
-4.9866010 -13.7178926 -159.9003673 0.106 0.204 0.047
-4.9866010 -13.4178940 -159.0803713 0.274 0.388 0.309
-4.9866010 -13.2878944 -158.7203741 0.266 0.380 0.292
-4.9866010 -13.1178936 -158.2803428 0.266 0.384 0.288
-4.9866010 -12.8978929 -157.7203572 0.294 0.423 0.340
-4.9866010 -12.5178928 -156.7003429 0.384 0.502 0.455
-4.9866010 -12.3878941 -156.3903689 0.600 0.698 0.611
-4.9866010 -12.3678930 -157.7803642 0.117 0.239 0.073
-4.9866010 -11.9078932 -157.0803523 0.086 0.157 0.063
-4.9866010 -11.8578933 -156.9703519 0.094 0.169 0.081
-4.9866010 -11.6878925 -155.8703631 0.243 0.318 0.192
-4.9766013 -13.0978925 -158.9003652 0.149 0.278 0.094
-4.9766013 -11.7578935 -156.5203518 0.109 0.169 0.094
-4.9566012 -12.4378931 -157.8503549 0.149 0.258 0.098
-4.9166013 -13.1278932 -158.2603604 0.278 0.396 0.300
-4.7566015 -13.7578929 -159.6303582 0.262 0.368 0.292
-4.5266007 -14.3978931 -160.2603495 0.384 0.470 0.387
-4.3666009 -14.1378930 -159.9503607 0.439 0.498 0.414
-4.3666009 -13.8278939 -159.5103592 0.258 0.376 0.282
-4.3666009 -13.7378927 -159.5903635 0.196 0.290 0.155
-4.3666009 -13.4878932 -158.8303596 0.278 0.404 0.313
-4.3666009 -13.1178936 -157.9803675 0.314 0.443 0.375
-4.3666009 -12.7878934 -157.2903544 0.321 0.455 0.392
-4.3666009 -12.7078937 -157.1203619 0.329 0.451 0.392
-4.3666009 -12.3578934 -156.2603563 0.384 0.510 0.465
-4.3666009 -12.2278929 -157.0303440 0.133 0.243 0.094
-4.3666009 -12.1878926 -155.6603611 0.361 0.486 0.404
-4.3566013 -13.2078938 -158.1403464 0.314 0.439 0.379
-4.3566013 -12.9678929 -158.5903615 0.117 0.204 0.063
-4.3566013 -12.4078933 -157.5103551 0.153 0.258 0.090
-3.7366012 -13.1478934 -158.0703557 0.435 0.537 0.400
-3.7366012 -13.1078931 -158.5003436 0.247 0.345 0.192
-3.7366012 -12.8678931 -158.1603587 0.372 0.451 0.305
-3.7366012 -12.4078933 -156.4803571 0.380 0.510 0.443
-3.7366012 -12.1978931 -155.6003541 0.258 0.400 0.219
-3.7266009 -13.2678924 -158.5903615 0.165 0.266 0.120
-3.7266009 -12.7678933 -157.3303491 0.396 0.549 0.435
-3.7266009 -12.6678934 -157.0503712 0.364 0.490 0.400
-3.7266009 -12.4778925 -157.4903578 0.349 0.407 0.292
-3.7266009 -12.3678930 -157.1503580 0.172 0.286 0.106
-5.0266008 -10.5978930 -149.5703608 0.180 0.255 0.167
-4.9866010 -12.1678943 -155.5103660 0.333 0.455 0.396
-4.9866010 -12.0678926 -155.0003588 0.310 0.435 0.353
-4.9866010 -12.0378947 -154.3803513 0.239 0.333 0.239
-4.9866010 -11.8778935 -152.7203470 0.298 0.407 0.317
-4.9866010 -11.8478928 -154.0403664 0.145 0.227 0.106
-4.9866010 -11.8378941 -153.9803594 0.129 0.212 0.090
-4.9866010 -11.8278936 -152.4303555 0.298 0.423 0.340
-4.9866010 -11.6578946 -154.6603590 0.121 0.200 0.090
-4.9866010 -11.6078937 -151.1603594 0.353 0.467 0.396
-4.9866010 -11.4478935 -150.4203677 0.384 0.498 0.426
-4.9866010 -11.3778943 -150.0603706 0.306 0.411 0.353
-4.9866010 -11.2078935 -149.6503651 0.306 0.396 0.317
-4.9866010 -10.8178938 -152.6003629 0.121 0.180 0.098
-4.9866010 -10.5778929 -149.4403481 0.184 0.258 0.171
-4.9866010 -10.4678925 -151.3503641 0.145 0.215 0.112
-4.9866010 -10.1478929 -150.8403569 0.184 0.266 0.145
-4.9866010 -9.9878935 -149.5403647 0.306 0.411 0.202
-4.9866010 -9.9578938 -150.5603641 0.204 0.290 0.149
-4.9866010 -9.6578933 -150.2303630 0.204 0.290 0.149
-4.9866010 -9.4978930 -148.8103569 0.459 0.545 0.353
-4.9866010 -9.3278931 -149.4403481 0.200 0.282 0.152
-4.9866010 -9.3278931 -148.1903493 0.741 0.811 0.710
-4.9866010 -9.1578932 -148.9503682 0.212 0.290 0.145
-4.9766013 -11.9378939 -153.1803608 0.227 0.337 0.239
-4.9766013 -11.7078945 -151.9303620 0.353 0.467 0.387
-4.9766013 -11.1878933 -153.2603651 0.102 0.161 0.085
-4.9766013 -10.6778927 -152.0603448 0.125 0.200 0.112
-4.9766013 -9.3778931 -148.3203620 0.690 0.768 0.623
-4.9766013 -9.2278933 -147.5903690 0.765 0.863 0.775
-4.9666008 -11.8978927 -153.9703459 0.149 0.231 0.102
-4.9666008 -10.8478926 -149.0303576 0.172 0.239 0.163
-4.9666008 -10.5978930 -151.7503560 0.137 0.208 0.106
-4.9566012 -11.2878932 -153.3703655 0.113 0.180 0.106
-4.9366010 -10.6178932 -148.9703506 0.235 0.333 0.219
-4.9266010 -11.2678930 -149.6103555 0.290 0.380 0.300
-4.8866011 -12.0078940 -154.0703624 0.239 0.333 0.198
-4.8766010 -10.6278937 -151.3103694 0.121 0.196 0.109
-4.8566014 -9.9978931 -150.1403600 0.196 0.282 0.141
-4.8066010 -10.6978929 -148.3603567 0.176 0.255 0.155
-4.8066010 -10.5778929 -148.3703554 0.184 0.262 0.163
-4.7966009 -10.6278937 -150.8703679 0.133 0.204 0.116
-4.7566015 -11.2478947 -149.0103453 0.282 0.376 0.313
-4.7066011 -12.0978924 -154.1903466 0.243 0.345 0.231
-4.6766009 -9.3878927 -147.7103531 0.376 0.470 0.282
-4.6466012 -10.7178930 -147.7803588 0.208 0.302 0.206
-4.6466012 -10.5678933 -147.7503628 0.176 0.255 0.155
-4.6066013 -10.6978929 -150.2603441 0.121 0.188 0.112
-4.5466009 -11.2078935 -151.6303569 0.153 0.223 0.120
-4.5266007 -11.8978927 -152.1003544 0.231 0.349 0.245
-4.4966009 -10.4078939 -147.1503675 0.188 0.278 0.167
-4.4866009 -9.3878927 -147.1403688 0.318 0.407 0.227
-4.4566011 -10.6678931 -147.1503675 0.251 0.341 0.239
-4.4066003 -11.3078924 -148.3903676 0.361 0.467 0.392
-4.3766014 -11.7778927 -153.1403512 0.153 0.235 0.112
-4.3666009 -12.2178933 -153.7603587 0.196 0.310 0.192
-4.3666009 -12.1978931 -153.1903595 0.251 0.353 0.239
-4.3666009 -12.1078929 -155.1803648 0.278 0.404 0.313
-4.3666009 -11.8678929 -150.6303549 0.286 0.396 0.305
-4.3666009 -11.8478928 -150.1403600 0.227 0.341 0.231
-4.3666009 -11.8278936 -153.1903595 0.133 0.215 0.094
-4.3666009 -11.7878942 -151.4603645 0.427 0.537 0.439
-4.3666009 -11.6278939 -152.7703553 0.141 0.219 0.112
-4.3666009 -11.5878927 -149.5003700 0.282 0.380 0.305
-4.3666009 -11.5678934 -151.7103612 0.121 0.215 0.090
-4.3666009 -11.4578931 -148.8803625 0.258 0.353 0.288
-4.3666009 -11.3278944 -148.2403576 0.407 0.525 0.422
-4.3666009 -11.2278927 -150.3303647 0.137 0.215 0.106
-4.3666009 -11.1578936 -147.7103531 0.290 0.376 0.284
-4.3666009 -11.1278938 -149.9603540 0.141 0.204 0.102
-4.3666009 -11.0978941 -148.4203488 0.133 0.204 0.102
-4.3666009 -10.9778931 -149.3603736 0.129 0.200 0.106
-4.3666009 -10.8578932 -148.0603665 0.282 0.364 0.241
-4.3666009 -10.7278926 -146.8903571 0.208 0.302 0.198
-4.3666009 -10.5878944 -146.7903554 0.219 0.310 0.198
-4.3666009 -10.0578927 -147.9903609 0.184 0.278 0.152
-4.3666009 -9.9378927 -146.9203681 0.180 0.270 0.159
-4.3666009 -9.9178934 -147.9903609 0.184 0.278 0.152
-4.3666009 -9.5678931 -147.6503611 0.219 0.314 0.171
-4.3666009 -9.2878919 -147.4103481 0.204 0.298 0.155
-4.3466012 -12.1678943 -154.1303545 0.192 0.290 0.163
-4.3466012 -12.1078929 -152.6603550 0.223 0.341 0.239
-4.3466012 -11.9778933 -152.1503627 0.258 0.368 0.270
-4.3466012 -11.8778935 -150.6903470 0.251 0.349 0.262
-4.3266010 -11.8778935 -150.9303600 0.262 0.361 0.278
-4.3266010 -11.2478947 -147.7703601 0.314 0.407 0.313
-4.3166010 -11.8778935 -150.1403600 0.270 0.380 0.282
-4.2466009 -10.0878924 -147.7803588 0.169 0.262 0.137
-4.1966010 -11.8678929 -149.9103606 0.208 0.325 0.223
-4.1366010 -11.2678930 -147.0803469 0.274 0.364 0.284
-4.0366012 -11.8878940 -149.3703574 0.227 0.329 0.223
-3.9666011 -11.8778935 -148.9703506 0.231 0.329 0.241
-3.8966010 -11.8778935 -148.3303457 0.266 0.368 0.270
-3.8066010 -11.9478935 -150.8303583 0.133 0.215 0.094
-3.8066010 -11.8778935 -147.7703601 0.286 0.372 0.282
-3.7366012 -12.3678930 -153.8603455 0.200 0.318 0.184
-3.7366012 -12.3378923 -154.0403664 0.188 0.306 0.171
-3.7366012 -12.2478940 -151.0003507 0.208 0.321 0.210
-3.7366012 -12.2478940 -150.9003639 0.204 0.306 0.192
-3.7366012 -12.2278929 -153.0303508 0.165 0.270 0.133
-3.7366012 -12.1878926 -155.2303582 0.239 0.357 0.245
-3.7366012 -12.1778930 -149.8603523 0.184 0.298 0.180
-3.7366012 -12.1578928 -149.6203542 0.188 0.302 0.184
-3.7366012 -12.0478924 -148.3403593 0.243 0.337 0.241
-3.7366012 -11.9278925 -147.4903524 0.266 0.361 0.274
-3.7366012 -11.8678929 -147.2303569 0.258 0.368 0.278
-3.7366012 -11.8278936 -149.0903646 0.133 0.212 0.106
-3.7366012 -11.7378933 -148.5203505 0.129 0.227 0.112
-3.7366012 -11.7178923 -148.3403593 0.133 0.227 0.124
-3.7366012 -11.5878927 -146.8503624 0.255 0.368 0.288
-3.7366012 -11.2178931 -147.5303471 0.137 0.208 0.106
-3.7366012 -10.3678936 -146.7503458 0.161 0.239 0.141
-3.7266009 -12.3878941 -152.7803689 0.204 0.318 0.206
-3.7266009 -12.1478932 -148.9703506 0.223 0.325 0.219
-3.7266009 -12.0878927 -151.8803537 0.117 0.208 0.094
-3.7266009 -10.6878942 -147.0403522 0.149 0.219 0.124
-3.6666009 -11.8778935 -147.1103579 0.262 0.357 0.270
-3.5766007 -12.2078937 -148.3903676 0.204 0.306 0.206
-3.4766009 -12.4978945 -152.6903510 0.204 0.314 0.214
-3.4666008 -12.4978945 -152.9603601 0.208 0.321 0.202
-3.4066010 -12.4978945 -153.5203606 0.196 0.318 0.184
-3.3566011 -12.4978945 -148.4503597 0.180 0.282 0.184
-3.3566011 -12.2978939 -149.2003500 0.133 0.212 0.112
-3.3466010 -12.5078922 -148.4003663 0.169 0.270 0.163
-3.3266011 -12.4978945 -149.7403532 0.184 0.298 0.180
-3.3166010 -12.5078922 -150.5503505 0.172 0.270 0.155
-3.3166010 -12.4978945 -149.2103636 0.196 0.294 0.180
-3.2866010 -12.4978945 -150.9703547 0.165 0.278 0.167
-3.2466012 -12.5078922 -151.6103446 0.188 0.282 0.180
-3.1966008 -12.5178928 -147.1303552 0.188 0.290 0.192
-3.1866010 -12.5578931 -147.3203599 0.204 0.306 0.192
-3.1166009 -12.7078937 -148.2903659 0.215 0.318 0.219
-3.1166009 -12.6478933 -147.1503675 0.212 0.325 0.214
-3.1166009 -12.6378927 -150.2303630 0.200 0.302 0.188
-3.1166009 -12.6378927 -149.1803527 0.180 0.282 0.167
-3.1166009 -12.6078930 -152.5103599 0.165 0.274 0.124
-3.1166009 -12.6078930 -152.1203667 0.188 0.302 0.184
-3.1166009 -12.6078930 -150.7203579 0.169 0.270 0.155
-3.1166009 -12.5378929 -153.3903629 0.184 0.302 0.152
-3.1166009 -12.4978945 -153.7703574 0.208 0.341 0.196
-3.1166009 -12.4978945 -149.0103453 0.149 0.219 0.133
-3.1166009 -12.4878930 -147.6403624 0.196 0.286 0.176
-3.1166009 -12.4178948 -154.2903632 0.231 0.372 0.192
-3.1166009 -11.6478931 -147.0003724 0.133 0.223 0.112
-3.1066011 -12.5678927 -151.4303535 0.180 0.290 0.192
-3.1066011 -12.4778925 -154.0303677 0.266 0.388 0.214
-3.0966010 -12.6978932 -147.2703516 0.223 0.325 0.210
-3.0866009 -12.5378929 -149.0703523 0.125 0.215 0.106
-2.6866009 -13.1278932 -146.9003558 0.212 0.341 0.227
-2.6766006 -13.1278932 -147.5703567 0.200 0.298 0.180
-2.6366010 -13.1278932 -147.9303539 0.204 0.321 0.188
-2.4866010 -13.3578926 -147.0103562 0.243 0.357 0.235
-2.4866010 -13.3478930 -147.4403590 0.247 0.361 0.241
-2.4866010 -13.1078931 -148.6703604 0.302 0.384 0.262
-2.4866010 -13.0878948 -147.5203484 0.157 0.255 0.128
-2.4866010 -13.0678928 -147.8403658 0.161 0.258 0.133
-2.4866010 -13.0178928 -149.4603604 0.306 0.419 0.300
-2.4866010 -12.9678929 -151.3403654 0.270 0.400 0.278
-2.4866010 -12.9378932 -150.7303566 0.258 0.376 0.235
-2.4866010 -12.8378924 -147.0803469 0.153 0.251 0.137
-2.4766009 -13.2878944 -147.8703618 0.266 0.380 0.257
-2.4766009 -13.1378938 -148.5803574 0.302 0.404 0.266
-2.4766009 -12.9578942 -149.7403532 0.129 0.247 0.112
-2.4666009 -12.9678929 -151.6603529 0.286 0.411 0.266
-2.3466011 -13.1278932 -149.4503617 0.337 0.435 0.317
-2.3266010 -13.1278932 -149.7403532 0.314 0.427 0.305
-4.9866010 -9.0478929 -146.7403620 0.713 0.815 0.677
-4.9866010 -8.7778931 -146.5103477 0.176 0.278 0.133
-4.9666008 -8.7678926 -145.7203478 0.490 0.596 0.465
-4.8566014 -8.7378928 -146.1603492 0.192 0.298 0.137
-4.6666013 -8.7478934 -145.1103538 0.537 0.643 0.512
-4.3666009 -9.3378928 -146.4703530 0.310 0.419 0.231
-4.3666009 -9.0778936 -145.9003538 0.482 0.560 0.422
-4.3666009 -8.7078931 -145.8103508 0.176 0.262 0.109
-4.3566013 -8.9678923 -146.6603577 0.227 0.310 0.155
-4.3566013 -8.6678937 -144.6903497 0.811 0.867 0.775
-4.3466012 -10.1078926 -146.5203613 0.184 0.255 0.167
-4.3466012 -8.8778939 -145.1403648 0.713 0.796 0.633
-4.3366007 -9.3978932 -146.4103609 0.290 0.392 0.206
-4.2266012 -9.3878927 -145.7903534 0.258 0.357 0.192
-4.1966010 -10.6678931 -146.5103477 0.270 0.361 0.282
-4.1566011 -10.1378923 -145.8803564 0.200 0.266 0.192
-4.1066012 -8.7478934 -144.3803608 0.612 0.698 0.543
-4.0166010 -8.7878937 -144.0103501 0.411 0.494 0.365
-4.0066009 -10.4978932 -146.0103542 0.321 0.415 0.321
-4.0066009 -9.8078931 -145.2703625 0.184 0.258 0.180
-3.9466009 -10.0378934 -145.2603489 0.215 0.290 0.210
-3.8366010 -9.5878923 -144.6403712 0.172 0.243 0.149
-3.7366012 -10.9378928 -146.2503672 0.455 0.517 0.477
-3.7366012 -10.4578948 -145.5003470 0.443 0.556 0.486
-3.7366012 -10.1278946 -146.4703530 0.165 0.243 0.137
-3.7366012 -9.9178934 -146.1803615 0.180 0.258 0.152
-3.7366012 -9.6378941 -144.4203705 0.212 0.278 0.206
-3.7366012 -9.6078934 -145.8403617 0.169 0.247 0.141
-3.7366012 -8.9478930 -143.8003480 0.258 0.333 0.206
-3.7366012 -8.7578930 -144.5503682 0.204 0.290 0.149
-3.7366012 -8.7078931 -144.4603503 0.192 0.278 0.128
-3.7266009 -11.3178929 -146.5303600 0.266 0.329 0.278
-3.7266009 -10.0978930 -144.8803544 0.329 0.415 0.365
-3.7266009 -9.3678934 -145.5603689 0.184 0.262 0.155
-3.7266009 -8.9978930 -144.9903548 0.200 0.294 0.167
-3.7066010 -9.9878935 -144.6803659 0.302 0.384 0.309
-3.6766010 -9.3978932 -144.0303624 0.196 0.270 0.192
-3.6566013 -8.7878937 -143.3803588 0.290 0.376 0.235
-3.6466010 -10.6978929 -145.8803564 0.529 0.639 0.551
-3.5766007 -10.0678932 -144.6203589 0.349 0.455 0.379
-3.3966010 -9.4578937 -143.3903724 0.294 0.368 0.292
-3.3566011 -8.8978931 -142.7403539 0.204 0.282 0.184
-3.3466010 -11.9578931 -146.5203613 0.310 0.419 0.371
-3.2866010 -11.3178929 -145.8803564 0.314 0.411 0.387
-3.2066009 -10.6378933 -145.2003568 0.431 0.498 0.473
-3.2066009 -8.7478934 -142.1303600 0.188 0.247 0.163
-3.1966008 -9.9978931 -144.0203488 0.427 0.541 0.455
-3.1466009 -9.3778931 -142.7303553 0.329 0.396 0.321
-3.1166009 -12.2878933 -146.5203613 0.298 0.407 0.353
-3.1166009 -11.5678934 -145.9103525 0.333 0.455 0.430
-3.1166009 -11.1878933 -146.4903504 0.141 0.231 0.116
-3.1166009 -11.0678943 -145.4903632 0.349 0.451 0.400
-3.1166009 -10.7378941 -145.1903582 0.329 0.396 0.365
-3.1166009 -10.6078926 -145.0203508 0.419 0.486 0.461
-3.1166009 -10.5278930 -145.6703693 0.137 0.215 0.116
-3.1166009 -10.1278946 -144.2003548 0.404 0.502 0.426
-3.1166009 -9.9378927 -143.8003480 0.407 0.517 0.430
-3.1166009 -9.8178936 -144.7303593 0.145 0.219 0.133
-3.1166009 -9.6078934 -143.1003511 0.380 0.470 0.408
-3.1166009 -9.5878923 -144.4303542 0.137 0.215 0.116
-3.1166009 -8.9578936 -142.1203613 0.227 0.298 0.210
-3.1166009 -8.6778924 -141.7103559 0.196 0.255 0.171
-3.1066011 -11.5478924 -145.8803564 0.333 0.455 0.430
-3.1066011 -9.0078926 -143.6403543 0.145 0.215 0.120
-3.1066011 -8.7878937 -143.3303505 0.169 0.239 0.145
-3.0966010 -12.3878941 -146.6103494 0.247 0.353 0.284
-3.0966010 -9.0778936 -142.2203481 0.274 0.349 0.262
-3.0866009 -10.0378934 -144.0103501 0.384 0.482 0.400
-2.9966012 -9.3978932 -142.6103562 0.368 0.459 0.379
-2.9966012 -8.7778931 -141.5103525 0.231 0.302 0.214
-2.9466010 -12.5278942 -146.4403570 0.270 0.404 0.349
-2.8666011 -11.9178938 -145.8603442 0.447 0.549 0.512
-2.8566010 -11.2578925 -145.2803612 0.400 0.510 0.455
-2.7966010 -9.9278931 -143.4903592 0.368 0.478 0.379
-2.7566012 -10.6878942 -144.6003616 0.404 0.467 0.422
-2.6966010 -9.3778931 -142.1403587 0.396 0.517 0.455
-2.6966010 -8.8078929 -140.8603489 0.290 0.372 0.296
-2.5366014 -12.5378929 -145.9003538 0.318 0.435 0.404
-2.5166010 -13.1378938 -146.3903636 0.262 0.380 0.278
-2.4866010 -13.2178925 -146.4203447 0.266 0.380 0.270
-2.4866010 -13.0478926 -146.2403536 0.290 0.411 0.349
-2.4866010 -12.5778941 -145.8603442 0.341 0.470 0.426
-2.4866010 -12.2578926 -146.5603411 0.141 0.219 0.112
-2.4866010 -12.2078937 -146.5203613 0.133 0.212 0.106
-2.4866010 -12.0378947 -145.4703659 0.302 0.411 0.357
-2.4866010 -11.6678933 -146.0103542 0.137 0.215 0.109
-2.4866010 -11.6678933 -145.1703459 0.325 0.431 0.404
-2.4866010 -11.1978939 -145.4903632 0.129 0.219 0.109
-2.4866010 -11.1478940 -144.6703523 0.318 0.400 0.365
-2.4866010 -10.7978927 -144.3603635 0.329 0.411 0.375
-2.4866010 -10.0578927 -143.4703469 0.431 0.513 0.455
-2.4866010 -9.6678948 -142.7503675 0.388 0.513 0.422
-2.4866010 -9.2678927 -141.7503506 0.376 0.474 0.392
-2.4866010 -8.9178933 -140.7203525 0.463 0.576 0.504
-2.4866010 -8.8478932 -142.5003707 0.117 0.188 0.102
-2.4766009 -11.3178929 -145.6303596 0.129 0.219 0.116
-2.4766009 -9.9778930 -143.6003596 0.239 0.314 0.235
-2.4766009 -9.9478932 -143.2503611 0.423 0.529 0.469
-2.4766009 -8.9978930 -140.9103572 0.427 0.549 0.486
-2.4566010 -10.0278938 -143.3803588 0.463 0.568 0.500
