-8.6324355 100.5987525 -149.2262781 0.208 0.321 0.149
-8.6324355 100.7487476 -150.6262720 0.215 0.325 0.167
-8.6124362 100.2887562 -146.2162584 0.215 0.337 0.163
-8.6024357 100.1287550 -144.3862617 0.208 0.325 0.120
-8.5924361 100.0287533 -143.1362629 0.219 0.341 0.116
-8.5924361 100.6487459 -149.7162580 0.215 0.325 0.163
-8.3824359 100.6487459 -150.3362805 0.227 0.337 0.176
-8.3124358 99.8287499 -143.2862729 0.215 0.325 0.124
-8.3024362 99.8187587 -142.5562799 0.223 0.333 0.133
-8.1924358 99.7787490 -141.9862658 0.204 0.321 0.124
-8.1824362 99.8287499 -143.7162608 0.212 0.325 0.137
-8.1824362 100.7287502 -151.0562599 0.231 0.337 0.176
-7.9124356 99.8287499 -144.5462704 0.212 0.318 0.149
-7.8224363 99.5087475 -142.3962563 0.200 0.310 0.120
-7.8224363 99.8087451 -144.7862685 0.208 0.314 0.145
-7.8224363 100.1487523 -147.5362629 0.235 0.357 0.184
-7.8224363 100.4087552 -149.2362469 0.266 0.376 0.214
-7.8224363 100.6187499 -150.2562612 0.255 0.364 0.202
-7.8124362 99.5087475 -141.6062564 0.223 0.341 0.137
-7.8124362 99.6287540 -143.3862746 0.212 0.318 0.155
-7.8124362 99.6687561 -143.6662525 0.200 0.306 0.137
-7.8124362 99.9887437 -145.8462626 0.212 0.318 0.149
-7.8124362 100.6687582 -150.5962610 0.251 0.357 0.188
-7.8024357 100.0287533 -146.1562663 0.219 0.329 0.167
-7.7924361 100.2987474 -148.3062655 0.219 0.341 0.167
-7.7824360 99.8687521 -145.1762766 0.212 0.318 0.149
-7.7724368 100.5287543 -149.7262716 0.258 0.368 0.206
-7.1024359 99.7987613 -145.3262568 0.219 0.325 0.155
-7.0524360 100.6787494 -150.2262652 0.278 0.392 0.219
-6.9924360 99.1687477 -141.9562697 0.212 0.318 0.149
-6.9924360 99.2287546 -142.3062533 0.212 0.325 0.152
-6.9924360 99.4087532 -143.4562653 0.200 0.314 0.141
-6.9924360 99.4587541 -143.7062621 0.208 0.314 0.145
-6.9924360 99.6987522 -144.9062675 0.208 0.314 0.145
-6.9924360 100.6187499 -149.6162564 0.274 0.384 0.223
-6.9924360 100.8087546 -150.9062648 0.258 0.372 0.198
-6.9824364 100.0187472 -146.7762589 0.223 0.345 0.171
-6.9824364 100.1487523 -147.2362727 0.227 0.349 0.176
-6.9824364 100.5787477 -149.3162662 0.274 0.388 0.214
-6.9724359 99.9087542 -146.1062580 0.204 0.314 0.152
-6.9624363 100.3387496 -147.9862481 0.243 0.357 0.184
-6.9624363 100.6987467 -150.2462626 0.278 0.392 0.219
-6.9224364 99.7887477 -145.3962624 0.204 0.310 0.141
-6.7224358 98.9987478 -141.3362622 0.215 0.321 0.152
-6.5224362 100.6687582 -149.3262649 0.231 0.345 0.171
-6.3124360 102.3387536 -150.5562812 0.137 0.247 0.059
-6.2924363 102.2787467 -150.4162550 0.157 0.274 0.077
-6.2924363 102.3987532 -151.1262655 0.161 0.270 0.081
-6.2724361 102.3587510 -150.2462626 0.188 0.318 0.102
-6.2624360 102.2487581 -150.1362622 0.129 0.219 0.055
-6.2424359 107.1787551 -145.7762569 0.137 0.223 0.073
-6.2324363 107.1687564 -145.2962607 0.145 0.231 0.081
-6.1924364 106.9687605 -146.1362541 0.102 0.196 0.063
-6.1724363 99.0287513 -141.8162733 0.204 0.318 0.145
-6.1724363 99.1487503 -142.4762607 0.223 0.337 0.163
-6.1724363 99.5287448 -144.4062591 0.243 0.349 0.180
-6.1724363 100.2587527 -147.3462731 0.239 0.364 0.180
-6.1724363 100.5287543 -148.6862600 0.258 0.372 0.192
-6.1724363 100.8487493 -149.9462575 0.278 0.392 0.202
-6.1724363 101.0187566 -150.8262604 0.251 0.368 0.171
-6.1724363 102.1287516 -150.3062546 0.094 0.169 0.059
-6.1724363 102.1387503 -149.9862671 0.102 0.165 0.059
-6.1724363 102.4287492 -150.1562595 0.258 0.404 0.141
-6.1724363 102.4987474 -150.4862458 0.294 0.435 0.159
-6.1724363 102.6487499 -151.0862559 0.255 0.419 0.120
-6.1724363 106.8387553 -146.2162584 0.109 0.204 0.063
-6.1724363 106.8987399 -145.5862522 0.125 0.212 0.069
-6.1724363 107.1587428 -144.7962672 0.157 0.258 0.081
-6.1724363 107.3387563 -144.1062689 0.161 0.290 0.073
-6.1624362 99.8187587 -145.7062662 0.231 0.337 0.167
-6.1624362 100.0587493 -146.6362625 0.258 0.372 0.192
-6.1524357 98.9287496 -141.1862671 0.200 0.314 0.141
-6.1524357 100.4187465 -147.8662789 0.258 0.372 0.192
-6.1524357 100.7087529 -149.2662728 0.270 0.376 0.206
-6.1524357 107.4487567 -143.5062587 0.184 0.306 0.069
-6.1424361 107.3187590 -146.1662650 0.113 0.200 0.059
-6.1324360 98.9587456 -141.3662583 0.200 0.314 0.141
-6.1324360 99.2287546 -142.9062635 0.231 0.345 0.171
-6.1324360 107.2187498 -144.4762647 0.161 0.278 0.073
-6.1224359 102.2787467 -149.3762732 0.153 0.278 0.081
-6.1124358 99.5687470 -144.5362717 0.223 0.329 0.159
-6.0924357 99.8887569 -145.9562629 0.231 0.345 0.171
-6.0624359 102.3387536 -149.3462622 0.212 0.353 0.109
-5.9624361 107.2087511 -143.5862631 0.172 0.290 0.077
-5.8824359 106.4187512 -146.0062563 0.121 0.204 0.073
-5.8724359 106.3687503 -146.2362707 0.102 0.196 0.069
-5.8024358 107.2187498 -142.6362544 0.184 0.318 0.081
-5.7924362 100.6687582 -148.4062672 0.239 0.337 0.180
-5.7624360 101.9887552 -148.5562623 0.153 0.239 0.098
-5.7324362 100.8187458 -149.3862569 0.302 0.415 0.227
-5.6824358 106.4087525 -145.2962607 0.125 0.212 0.063
-5.6824358 107.2787493 -146.9662637 0.113 0.188 0.069
-5.6624361 106.9087535 -146.9762623 0.109 0.184 0.073
-5.6524356 107.2287410 -141.8562680 0.208 0.345 0.094
-5.5924365 100.6787494 -147.6562619 0.208 0.318 0.155
-5.5824360 101.6887426 -147.7762610 0.133 0.208 0.081
-5.5624363 105.9087440 -149.7062743 0.361 0.498 0.278
-5.5524358 102.4187505 -148.5562623 0.262 0.396 0.159
-5.5324361 103.1387523 -150.8762687 0.298 0.463 0.171
-5.5224360 105.8987528 -149.3662596 0.368 0.506 0.284
-5.4324358 103.1587496 -150.2062678 0.278 0.435 0.159
-5.3824359 105.5787504 -149.3862569 0.223 0.337 0.163
-5.3724367 105.5787504 -149.4962573 0.208 0.318 0.155
-5.3624357 101.7687544 -146.8962729 0.172 0.258 0.106
-5.3524361 106.3687503 -146.9962597 0.113 0.200 0.059
-5.3424360 99.0587547 -141.7962611 0.215 0.337 0.171
-5.3424360 99.3187502 -143.2362646 0.212 0.298 0.145
-5.3424360 99.7887477 -144.9062675 0.219 0.318 0.159
-5.3424360 99.9387503 -145.4662681 0.208 0.318 0.155
-5.3424360 100.5887538 -147.1362710 0.208 0.278 0.128
-5.3424360 100.9487510 -147.2962648 0.129 0.196 0.069
-5.3424360 100.9587497 -149.0062624 0.270 0.400 0.176
-5.3424360 101.2287512 -149.4462788 0.141 0.251 0.051
-5.3424360 101.4887542 -146.9862610 0.153 0.231 0.094
-5.3424360 101.4987454 -150.3362805 0.094 0.172 0.034
-5.3424360 102.6687548 -148.5062540 0.318 0.455 0.202
-5.3424360 102.9187441 -149.0062624 0.318 0.463 0.198
-5.3424360 103.5187542 -151.1362642 0.262 0.427 0.145
-5.3424360 105.5287570 -149.1862684 0.219 0.345 0.152
-5.3424360 105.6587547 -148.7362683 0.325 0.463 0.249
-5.3424360 105.8187485 -149.8262584 0.329 0.447 0.249
-5.3424360 105.8287472 -148.5262662 0.384 0.521 0.292
-5.3424360 106.2287539 -146.1362541 0.121 0.208 0.065
-5.3424360 106.7487597 -142.7462548 0.149 0.247 0.081
-5.3424360 106.8087444 -147.3762691 0.106 0.184 0.073
-5.3424360 106.8587527 -141.8762654 0.161 0.278 0.073
-5.3424360 107.5087562 -147.4762559 0.141 0.235 0.094
-5.3324359 99.6287540 -144.2762613 0.208 0.314 0.152
-5.3324359 100.1587510 -146.2462544 0.215 0.329 0.155
-5.3324359 101.4187559 -141.9662684 0.106 0.161 0.063
-5.3324359 101.4387533 -142.0362741 0.106 0.161 0.063
-5.3324359 101.4887542 -141.7362541 0.113 0.169 0.069
-5.3324359 101.6487479 -146.8262672 0.161 0.243 0.090
-5.3324359 101.7587408 -142.0262605 0.125 0.188 0.085
-5.3324359 103.2487452 -150.0362754 0.274 0.431 0.155
-5.3324359 103.3287495 -150.4862458 0.278 0.439 0.163
-5.3324359 106.5387577 -143.9162642 0.149 0.247 0.094
-5.3224359 99.1487503 -142.0562565 0.227 0.337 0.176
-5.3224359 100.6287485 -141.2562728 0.090 0.149 0.059
-5.3224359 101.2887508 -150.3862590 0.310 0.427 0.231
-5.3224359 105.5087447 -149.4462788 0.208 0.318 0.155
-5.3124363 106.2487513 -145.0962722 0.106 0.192 0.042
-15.7324355 99.0487412 -141.0262585 0.502 0.690 0.461
-15.4424366 99.1587490 -140.3662711 0.506 0.702 0.469
-15.4224355 98.4987542 -139.4862682 0.459 0.659 0.400
-15.2424360 99.9087542 -141.0662681 0.494 0.694 0.435
-15.2324354 97.8387520 -139.0462667 0.361 0.580 0.159
-15.2324354 98.5087529 -138.9362663 0.419 0.619 0.357
-15.2324354 99.0387574 -140.7362670 0.361 0.588 0.145
-15.2324354 99.0587547 -139.5862699 0.443 0.635 0.379
-15.2224358 99.9787524 -141.1262602 0.494 0.682 0.439
-15.2124353 98.3187482 -139.6362782 0.364 0.584 0.155
-15.2024366 98.9787430 -140.5762583 0.376 0.600 0.155
-15.2024366 99.0787521 -139.5262629 0.455 0.643 0.400
-15.1824364 98.4387547 -138.7162656 0.407 0.608 0.349
-15.0724361 98.8387540 -138.8162524 0.427 0.608 0.357
-15.0124356 99.8487473 -140.2162611 0.443 0.643 0.383
-14.9424365 98.2187539 -137.7062649 0.474 0.662 0.418
-14.9324359 99.0887508 -138.6662573 0.419 0.612 0.353
-14.8924356 100.6687582 -141.0962641 0.431 0.619 0.383
-14.8124360 99.9487564 -139.4362599 0.411 0.612 0.340
-14.7124361 99.0587547 -137.8462464 0.404 0.588 0.321
-14.6824364 98.3787552 -136.9662583 0.427 0.612 0.344
-14.6224359 100.8687541 -140.2862668 0.447 0.627 0.383
-14.5924352 99.9587551 -138.6662573 0.411 0.604 0.344
-14.5924352 105.3287536 -141.0162598 0.639 0.780 0.426
-14.5824356 105.4187492 -140.1062608 0.662 0.811 0.469
-14.4824358 99.0187526 -136.8862540 0.376 0.556 0.313
-14.4824358 101.5487462 -141.1362588 0.459 0.643 0.375
-14.4724362 98.2687473 -136.1862570 0.439 0.623 0.349
-14.4724362 105.6087464 -140.5862570 0.506 0.670 0.349
-14.4624356 99.9487564 -137.7262771 0.392 0.576 0.309
-14.4524360 105.4887474 -139.5162642 0.662 0.796 0.465
-14.4424364 100.6887481 -139.3062770 0.384 0.580 0.309
-14.4224353 105.6587547 -140.2162611 0.498 0.659 0.349
-14.4124357 97.9087502 -136.4562660 0.341 0.556 0.155
-14.4124357 99.4787514 -138.1062567 0.341 0.568 0.137
-14.4124357 99.9887437 -137.5762671 0.392 0.576 0.309
-14.4124357 100.2487466 -138.0662620 0.396 0.580 0.313
-14.4124357 100.2887562 -139.4862682 0.337 0.556 0.120
-14.4124357 100.3387496 -139.6862566 0.357 0.576 0.141
-14.4124357 100.4587561 -140.9262717 0.341 0.564 0.112
-14.4124357 105.3487509 -139.4662559 0.549 0.678 0.361
-14.4124357 105.6687534 -139.9962604 0.502 0.647 0.340
-14.4024361 98.2287526 -135.8262599 0.423 0.608 0.332
-14.4024361 98.3787552 -136.8662566 0.380 0.588 0.180
-14.4024361 99.3287489 -137.7862692 0.337 0.556 0.128
-14.4024361 99.4187519 -137.0062679 0.404 0.584 0.332
-14.4024361 100.7787511 -139.3162757 0.396 0.592 0.321
-14.4024361 101.3187468 -140.1262730 0.451 0.635 0.369
-14.4024361 105.5387482 -138.4962648 0.612 0.757 0.443
-14.4024361 105.6387573 -139.4462734 0.573 0.705 0.404
-14.3924365 101.6187519 -140.7662630 0.467 0.651 0.383
-14.3924365 105.1987559 -140.2162611 0.376 0.510 0.210
-14.3724354 98.9787430 -137.3562664 0.329 0.549 0.120
-14.3724354 105.6187525 -138.1262690 0.627 0.772 0.457
-14.3624358 105.5687517 -137.8762722 0.647 0.776 0.457
-14.3624358 105.7487503 -140.8862770 0.439 0.608 0.296
-14.3424356 105.6487411 -136.9062662 0.623 0.753 0.443
-14.3324360 101.4887542 -140.1462704 0.463 0.647 0.379
-14.3324360 105.5187508 -137.0462626 0.662 0.796 0.465
-14.3224364 105.6287438 -137.3762637 0.647 0.757 0.455
-14.2924357 98.3687490 -135.3762597 0.415 0.600 0.332
-14.2924357 100.6987467 -138.5762691 0.392 0.584 0.325
-14.2724365 99.9087542 -136.9662583 0.380 0.560 0.305
-14.2624350 99.1087481 -136.2262517 0.349 0.521 0.282
-14.2524354 105.5787504 -135.8562559 0.674 0.811 0.482
-14.2524354 105.6387573 -135.7662678 0.678 0.811 0.482
-14.2424367 100.6687582 -140.4162645 0.341 0.564 0.120
-14.2424367 105.5987552 -134.9662691 0.666 0.776 0.473
-14.2424367 105.6887507 -134.8162740 0.670 0.792 0.494
-14.2324362 97.6887494 -134.5662475 0.372 0.553 0.296
-14.2124351 100.7087529 -137.6362592 0.415 0.612 0.332
-14.2124351 102.3887545 -141.0762668 0.400 0.584 0.300
-14.2124351 105.6287438 -134.4062686 0.659 0.780 0.465
-14.1924359 107.2387472 -139.6062672 0.286 0.439 0.214
-14.1824363 107.2487533 -139.2562687 0.266 0.427 0.198
-14.1724357 105.6587547 -133.7762624 0.651 0.780 0.469
-14.1524365 105.5587456 -134.2062652 0.553 0.674 0.361
-14.1424360 98.2087553 -134.5562637 0.443 0.635 0.375
-14.1324345 105.5887491 -133.5662752 0.576 0.713 0.383
-14.1324345 105.7587489 -132.8462511 0.702 0.823 0.525
-14.1124362 105.6987494 -132.1062595 0.674 0.768 0.477
-14.1124362 107.2087511 -138.7062669 0.286 0.431 0.219
-14.0924361 105.5987552 -132.7862740 0.576 0.698 0.400
-14.0824346 99.3287489 -135.3462487 0.341 0.533 0.274
-14.0824346 99.8987481 -136.1662596 0.380 0.553 0.313
-14.0824346 101.5387550 -139.2462552 0.506 0.682 0.418
-14.0824346 102.3687497 -140.2962655 0.400 0.584 0.317
-14.0724359 100.6787494 -137.0162666 0.419 0.600 0.344
-14.0324356 105.5987552 -132.0562661 0.486 0.612 0.313
-13.9924362 99.8487473 -135.3162676 0.368 0.549 0.296
-13.9924362 107.2487533 -137.3562664 0.278 0.431 0.214
-13.9724361 99.0187526 -134.5462650 0.357 0.537 0.284
-13.9724361 101.5587524 -138.6562586 0.459 0.655 0.369
-13.9724361 103.1387523 -140.6462640 0.376 0.553 0.282
-13.9524369 104.7787443 -139.8862600 0.223 0.357 0.159
-13.9124356 100.7287502 -136.2362653 0.388 0.568 0.313
-13.9124356 102.3587510 -139.4662559 0.407 0.588 0.332
-13.9124356 103.2887548 -140.3262615 0.372 0.549 0.284
-13.9024360 107.1987525 -136.2362653 0.270 0.415 0.202
-13.9024360 107.2487533 -136.6562694 0.270 0.415 0.202
-13.8824359 104.7387496 -139.3762678 0.247 0.372 0.180
-13.8724353 103.1787470 -139.3662542 0.376 0.541 0.288
-13.8624366 98.2087553 -133.6162686 0.431 0.608 0.375
-13.8524352 107.2387472 -135.3362799 0.290 0.435 0.231
-13.8424356 99.9087542 -134.4462782 0.349 0.545 0.274
-13.8424356 101.4887542 -137.8662735 0.431 0.627 0.349
-13.8224363 103.6387533 -138.7062669 0.353 0.510 0.266
-13.8124358 103.0887514 -138.7062669 0.384 0.541 0.292
-13.8024352 104.0487438 -138.6262625 0.321 0.478 0.241
-13.7824360 100.6687582 -135.1762712 0.376 0.560 0.292
-13.7724364 99.0687460 -133.6362660 0.353 0.525 0.278
-13.7624359 107.2287410 -134.5962733 0.274 0.419 0.214
-13.7424367 103.1287462 -137.4562681 0.372 0.529 0.282
-13.7424367 103.1387523 -137.3362541 0.361 0.517 0.270
-13.7424367 104.7487557 -137.7762556 0.255 0.380 0.184
-13.7424367 104.7787443 -136.8562579 0.251 0.376 0.184
-13.7324361 100.6887481 -134.2262775 0.357 0.533 0.278
-13.7124360 103.1287462 -137.0362639 0.349 0.506 0.262
-13.7124360 103.1987444 -137.0562613 0.353 0.510 0.266
-13.7024345 104.7487557 -136.1762732 0.286 0.400 0.227
-13.6824362 101.5987471 -137.0162666 0.396 0.573 0.300
-13.6824362 107.2087511 -133.3462745 0.251 0.396 0.184
-13.6624351 98.1987491 -132.8862607 0.451 0.612 0.383
-13.6624351 99.9387503 -133.6262673 0.341 0.533 0.274
-13.6524364 107.1787551 -132.4162632 0.235 0.380 0.176
-13.6424359 107.2187498 -132.0762634 0.219 0.364 0.152
-13.6224348 100.7687449 -133.7662637 0.372 0.545 0.296
-13.6224348 103.9187536 -136.2462640 0.325 0.482 0.245
-13.6224348 107.2887480 -131.4662695 0.270 0.423 0.198
-13.5924360 103.0387506 -136.1662596 0.318 0.474 0.227
-13.5924360 104.6687514 -135.3862584 0.286 0.415 0.231
-13.5824354 97.9187489 -133.9962631 0.353 0.553 0.155
-13.5824354 98.2587487 -134.2062652 0.357 0.564 0.155
-13.5824354 98.3887464 -132.6862574 0.451 0.623 0.392
-13.5824354 99.5487496 -133.1862658 0.364 0.537 0.305
-13.5824354 100.1387462 -134.9962652 0.318 0.513 0.124
-13.5824354 100.1787484 -133.3762705 0.337 0.517 0.262
-13.5824354 100.6787494 -135.1962537 0.318 0.521 0.128
-13.5824354 100.7987484 -133.6062551 0.384 0.560 0.305
-13.5824354 100.9287536 -135.5462670 0.325 0.529 0.145
-13.5824354 101.1287570 -134.1062635 0.364 0.545 0.292
-13.5824354 101.2587622 -141.0162598 0.372 0.580 0.124
-13.5824354 101.5187502 -136.8862540 0.349 0.560 0.124
-13.5824354 101.6287506 -137.4062598 0.380 0.592 0.152
-13.5824354 101.9287482 -138.6362612 0.388 0.604 0.145
-13.5824354 101.9687578 -139.2762661 0.329 0.553 0.109
-13.5824354 102.4687514 -136.3262683 0.357 0.533 0.270
-13.5824354 103.0987576 -135.9862685 0.318 0.474 0.231
-13.5824354 103.1787470 -135.9562725 0.337 0.494 0.245
-13.5824354 104.1187495 -135.5562806 0.302 0.447 0.235
-13.5824354 104.6987548 -135.2962703 0.274 0.415 0.227
-13.5824354 104.9387529 -134.7762644 0.243 0.372 0.202
-13.5824354 104.9787551 -132.9562664 0.251 0.376 0.180
-13.5824354 105.0187424 -132.5162649 0.247 0.372 0.180
-13.5824354 105.0287560 -132.0962608 0.235 0.361 0.167
-13.5824354 105.1387489 -131.2262565 0.262 0.388 0.196
-13.5824354 106.4787433 -131.3862652 0.345 0.502 0.266
-13.5824354 106.5387577 -133.3062649 0.314 0.459 0.253
-13.5824354 106.7787558 -134.6062571 0.321 0.470 0.270
-13.5824354 107.0187464 -134.1262609 0.270 0.415 0.210
-13.5824354 107.0287451 -132.1962625 0.321 0.474 0.257
-13.5724358 99.7187495 -134.8962486 0.302 0.506 0.109
-13.5724358 101.4887542 -140.2262747 0.345 0.556 0.109
-13.5724358 104.9987525 -134.2062652 0.262 0.372 0.184
-13.5624362 101.2887508 -136.4062726 0.341 0.553 0.116
-13.5624362 101.6887426 -136.1562610 0.349 0.533 0.257
-13.5524357 99.0687460 -132.8662783 0.349 0.529 0.284
-13.5524357 103.8087457 -135.4162544 0.321 0.474 0.257
-13.5324365 99.0987495 -134.5562637 0.294 0.510 0.102
-13.5324365 101.4487520 -140.3662711 0.341 0.553 0.112
-13.5124363 102.8187498 -135.3762597 0.302 0.451 0.227
-13.4824365 99.9987498 -132.8562647 0.376 0.549 0.309
-13.4824365 101.4887542 -134.6562654 0.384 0.588 0.305
-13.4824365 104.7587544 -134.4362646 0.266 0.411 0.210
-13.4824365 104.7687531 -133.2062632 0.255 0.400 0.196
-13.4824365 104.7787443 -132.5862557 0.266 0.411 0.198
-13.4424362 103.3387482 -134.5662475 0.337 0.494 0.257
-13.4324357 98.2587487 -132.1262717 0.435 0.596 0.375
-13.4324357 100.8887514 -132.9262704 0.337 0.513 0.257
-13.4324357 101.5187502 -134.0662688 0.380 0.576 0.305
-13.4324357 103.0287519 -134.5462650 0.302 0.459 0.223
-13.4224361 99.8987481 -134.5462650 0.306 0.502 0.120
-13.4224361 104.7287434 -131.7962706 0.298 0.423 0.231
-13.4124355 98.3387455 -133.7262541 0.372 0.576 0.180
-13.4024359 101.4887542 -133.7662637 0.376 0.568 0.309
-13.3424345 103.8387492 -133.7062716 0.306 0.463 0.227
-13.3424345 104.7387496 -131.2762648 0.298 0.423 0.227
-13.3324359 99.1587490 -132.0862770 0.368 0.537 0.317
-13.3024361 102.8787568 -133.7362677 0.321 0.478 0.241
-13.2924346 100.0687480 -132.0362687 0.357 0.517 0.296
-13.2524353 100.6687582 -132.0562661 0.357 0.529 0.282
-13.2324360 103.9387509 -132.9462528 0.294 0.439 0.235
-13.2024363 101.5187502 -132.5862557 0.353 0.525 0.278
-13.1924376 98.3387455 -131.2962621 0.419 0.588 0.369
-13.1924376 101.4987454 -140.6062692 0.353 0.576 0.124
-13.1924376 103.9487571 -131.4762682 0.255 0.400 0.188
-13.1624360 102.9587537 -132.9062581 0.310 0.467 0.223
-13.1524364 103.9487571 -131.2362701 0.274 0.411 0.192
-13.1324362 101.5187502 -132.1262717 0.364 0.525 0.288
-13.1124351 99.7887477 -131.2962621 0.384 0.533 0.332
-13.0824354 100.1687571 -131.2762648 0.384 0.541 0.336
-13.0524356 100.9087414 -131.2862635 0.333 0.494 0.257
-13.0524356 103.0487493 -132.0662498 0.314 0.470 0.227
-13.0424360 103.1287462 -131.2962621 0.294 0.451 0.214
-12.7624357 98.6587554 -132.1762651 0.286 0.502 0.102
-12.7624357 99.0787521 -132.5362772 0.298 0.502 0.106
-12.7624357 99.8287499 -132.9962611 0.298 0.513 0.116
-12.7624357 101.8987447 -137.6462728 0.321 0.521 0.109
-12.7624357 101.9187570 -138.5262609 0.321 0.549 0.109
-12.7524361 98.2687473 -131.7862570 0.325 0.537 0.159
-12.7524361 100.4887447 -133.5062534 0.310 0.513 0.116
-12.7524361 101.5987471 -140.9962624 0.333 0.541 0.116
-12.7524361 101.8287539 -135.6962770 0.321 0.529 0.120
-12.7524361 101.8387526 -139.4962668 0.333 0.553 0.133
-12.7424365 97.8287533 -131.3562691 0.349 0.568 0.188
-12.7424365 100.7187590 -133.6762756 0.345 0.553 0.137
-12.7424365 101.7287523 -140.0062740 0.337 0.556 0.137
-12.7424365 101.7387435 -135.3862584 0.298 0.517 0.098
-12.7224363 101.0187566 -133.9062601 0.353 0.573 0.145
-12.7124358 101.8687487 -136.4662647 0.294 0.502 0.085
-12.6824360 101.4987454 -134.5862746 0.314 0.533 0.112
-12.6524363 99.8987481 -132.8762621 0.306 0.510 0.112
-12.5924358 99.0987495 -132.0262551 0.282 0.498 0.102
-12.5624361 98.2487500 -131.1762631 0.310 0.506 0.124
-12.3624364 99.1287529 -131.2662661 0.298 0.513 0.116
-12.3524358 99.8887569 -132.1262717 0.298 0.513 0.106
-12.1824360 99.8587459 -131.1762631 0.282 0.498 0.102
-12.1424366 100.6987467 -132.8762621 0.325 0.533 0.124
-11.9324364 100.9487510 -133.0462694 0.310 0.513 0.120
-11.9324364 101.6987562 -140.2062625 0.282 0.474 0.116
-11.9324364 101.7787531 -137.7962679 0.286 0.482 0.102
-11.9224358 100.5887538 -131.5762699 0.314 0.517 0.133
-11.9224358 100.7387564 -132.4062645 0.302 0.506 0.112
-11.9224358 101.7587408 -136.7962658 0.282 0.482 0.085
-11.9124353 101.3687551 -134.2262775 0.298 0.513 0.112
-11.9124353 101.5687510 -134.9362582 0.302 0.506 0.109
-11.9124353 101.6687453 -135.5062723 0.298 0.502 0.106
-11.9124353 101.6887426 -140.5662745 0.318 0.498 0.145
-11.9124353 101.7887518 -138.8462633 0.321 0.506 0.128
-11.9024366 101.7787531 -138.3062601 0.310 0.506 0.133
-11.8924361 100.7087529 -131.3862652 0.314 0.510 0.120
-11.4824353 101.4487520 -134.6462518 0.278 0.474 0.094
-11.3624362 101.5287489 -131.3662529 0.357 0.525 0.176
-11.1124367 101.5987471 -140.9362704 0.286 0.490 0.055
-11.1124367 101.6387567 -137.3662651 0.357 0.549 0.128
-11.1124367 101.6787589 -139.3362582 0.314 0.502 0.109
-11.1124367 101.7087549 -131.4262748 0.404 0.537 0.245
-11.1024361 101.3087481 -133.2162619 0.314 0.498 0.120
-11.1024361 101.3787538 -133.9462548 0.294 0.490 0.102
-11.1024361 101.4787480 -135.0362748 0.298 0.490 0.128
-11.1024361 101.4987454 -135.2962703 0.325 0.525 0.152
-11.1024361 101.5987471 -136.2362653 0.325 0.525 0.128
-11.1024361 101.6187519 -136.4162564 0.321 0.521 0.116
-11.0924356 101.4387533 -131.8662614 0.333 0.517 0.149
-11.0924356 101.6587541 -139.6462619 0.329 0.513 0.112
-11.0824360 101.2887508 -132.6162517 0.318 0.506 0.116
-11.0824360 101.6487479 -137.9862577 0.349 0.525 0.112
-11.0124359 102.0987481 -131.2462687 0.463 0.553 0.340
-10.7724359 101.4787480 -135.5062723 0.274 0.494 0.098
-10.4324361 101.4787480 -136.4762783 0.286 0.490 0.098
-10.4124360 101.4787480 -137.5162601 0.278 0.482 0.090
-10.3724357 101.4787480 -138.0362511 0.282 0.498 0.102
-10.3424359 101.4887542 -132.4162632 0.255 0.439 0.077
-10.3224367 101.4687568 -139.5762563 0.247 0.431 0.069
-10.3124361 101.4687568 -139.2862499 0.270 0.459 0.069
-10.2924360 101.3587490 -133.4062666 0.274 0.455 0.109
-10.2924360 101.3887450 -134.3362629 0.243 0.431 0.094
-10.2924360 101.4487520 -136.4362687 0.266 0.482 0.081
-10.2924360 101.4587507 -132.6262653 0.247 0.431 0.063
-10.2924360 101.4687568 -138.5162622 0.290 0.506 0.106
-10.2924360 102.3487449 -131.2662661 0.376 0.470 0.241
-10.2824355 101.3787538 -134.6962601 0.258 0.459 0.098
-10.2824355 101.4087498 -135.5962604 0.298 0.490 0.133
-10.2824355 101.4587507 -139.8662776 0.219 0.415 0.065
-10.2824355 101.4587507 -137.8062665 0.266 0.482 0.081
-10.2824355 101.4787480 -138.7962699 0.274 0.490 0.090
-10.2624362 101.7987505 -131.8362653 0.341 0.482 0.206
-10.2024367 101.5787497 -132.2862655 0.251 0.423 0.112
-9.9724364 102.3187563 -131.3562691 0.364 0.478 0.249
-9.8224366 101.4987454 -132.9662651 0.298 0.451 0.196
-9.4624357 101.2787521 -138.7162656 0.215 0.353 0.094
-9.4624357 101.5787497 -132.6562613 0.235 0.407 0.112
-9.4524361 101.2387499 -140.2062625 0.137 0.243 0.073
-9.4524361 101.2687460 -138.8762593 0.204 0.337 0.098
-9.4524361 101.2987494 -134.1362596 0.278 0.455 0.128
-9.4524361 101.4387533 -133.3362758 0.278 0.443 0.184
-9.4524361 101.9987464 -131.7462623 0.215 0.372 0.124
-9.4424365 101.2487486 -136.2062693 0.219 0.396 0.077
-9.4324360 101.1987552 -140.4862553 0.145 0.251 0.081
-9.4324360 101.2687460 -137.6762688 0.200 0.357 0.081
-9.4324360 102.3587510 -131.3362569 0.235 0.388 0.141
-9.4224354 101.2187526 -135.3362799 0.255 0.431 0.098
-9.4224354 101.2687460 -136.9362622 0.180 0.349 0.069
-9.1424361 101.4787480 -132.9462528 0.251 0.423 0.120
-8.7424368 102.3087427 -131.2162578 0.227 0.392 0.094
-8.6424360 100.8687541 -139.9162561 0.219 0.372 0.116
-8.6424360 100.9687483 -138.7362629 0.161 0.270 0.081
-8.6424360 101.5687510 -132.6362640 0.255 0.423 0.112
-8.6324355 100.9587497 -138.5562569 0.184 0.274 0.102
-8.6324355 101.0987461 -137.1362805 0.133 0.231 0.077
-8.6324355 101.1187509 -134.8762661 0.169 0.282 0.094
-8.6224359 101.0887548 -136.6562694 0.133 0.231 0.065
-8.6224359 101.2387499 -133.8862628 0.165 0.325 0.065
-8.6124362 100.4487500 -141.1262602 0.235 0.380 0.106
-8.6124362 101.3287529 -133.4662586 0.165 0.333 0.063
-8.6124362 101.9987464 -131.6062659 0.215 0.380 0.090
-8.5924361 100.9887457 -135.5562806 0.149 0.258 0.069
-8.5824355 102.2487581 -131.2162578 0.212 0.384 0.081
-8.5424352 100.5687490 -140.3462589 0.239 0.392 0.128
-8.4524369 100.6287485 -139.2962635 0.239 0.396 0.120
-8.4324358 101.4387533 -132.9062581 0.188 0.341 0.077
-8.3224364 100.6587520 -138.6062652 0.258 0.407 0.120
-8.1924358 100.6487459 -137.7162635 0.247 0.419 0.124
-8.1724357 99.8387560 -141.1262602 0.215 0.337 0.106
-8.1024356 99.8387560 -140.3162628 0.204 0.357 0.102
-8.0524357 100.6487459 -135.9162629 0.227 0.357 0.133
-8.0524357 100.6587520 -136.7262751 0.262 0.419 0.141
-7.9824366 99.8387560 -139.4362599 0.223 0.368 0.094
-7.9224361 99.8187587 -138.6462599 0.231 0.388 0.109
-7.8524360 99.8187587 -137.7162635 0.227 0.400 0.106
-7.8224363 99.5487496 -141.0862505 0.212 0.329 0.124
-7.8224363 99.6787548 -138.7762576 0.212 0.368 0.094
-7.8224363 99.6987522 -138.1562650 0.239 0.396 0.116
-7.8224363 99.8187587 -137.3562664 0.243 0.404 0.106
-7.8224363 100.2687514 -135.8562559 0.274 0.443 0.128
-7.8224363 100.8587554 -134.5962733 0.196 0.286 0.112
-7.8224363 101.3587490 -132.9362690 0.133 0.231 0.073
-7.8224363 101.4887542 -132.4862689 0.149 0.247 0.090
-7.8224363 101.6387567 -131.9762617 0.149 0.262 0.081
-7.8124362 100.8187458 -134.6962601 0.219 0.310 0.128
-7.7924361 100.5187556 -135.3762597 0.278 0.439 0.141
-7.7924361 101.0987461 -133.7762624 0.141 0.231 0.065
-7.7824360 99.5387584 -140.2462572 0.212 0.345 0.109
-7.7724368 99.7987613 -136.8962675 0.247 0.411 0.112
-7.7724368 99.9387503 -136.4362687 0.243 0.415 0.112
-7.6824361 99.7187495 -136.2262517 0.251 0.423 0.120
-7.6224362 100.6387547 -134.5862746 0.310 0.455 0.184
-7.6024360 99.7787490 -135.2362633 0.274 0.447 0.137
-7.4724359 99.7987613 -134.5362663 0.306 0.474 0.159
-7.4024359 99.1587490 -133.7562650 0.298 0.470 0.159
-7.4024359 101.4487520 -132.0462674 0.165 0.270 0.109
-7.3724361 98.9687592 -133.4162652 0.294 0.470 0.145
-7.3524360 99.0087539 -134.0562552 0.274 0.443 0.128
-7.3424359 100.3987491 -133.7762624 0.318 0.502 0.184
-7.3324363 98.9887565 -135.2562606 0.247 0.407 0.109
-7.3324363 98.9987478 -135.9362602 0.247 0.407 0.109
-7.3324363 99.0087539 -136.2662613 0.239 0.396 0.109
-7.2724363 99.0087539 -137.3962611 0.212 0.364 0.102
-7.2624357 99.2287546 -132.9362690 0.333 0.510 0.192
-7.2324360 98.9087522 -132.9362690 0.325 0.502 0.176
-7.1824361 99.9987498 -132.8862607 0.318 0.502 0.188
-7.1724369 99.0087539 -138.0762607 0.208 0.345 0.116
-7.0624361 98.9987478 -139.2662674 0.215 0.325 0.133
-7.0424359 98.9887565 -139.7162676 0.208 0.321 0.133
-7.0324359 99.5687470 -132.0962608 0.310 0.502 0.192
-7.0324359 100.0087559 -132.0962608 0.290 0.490 0.180
-7.0224362 101.4087498 -131.1862618 0.165 0.255 0.090
-6.9924360 98.4087437 -134.0062618 0.235 0.396 0.120
-6.9924360 98.5187516 -135.4662627 0.196 0.325 0.109
-6.9924360 98.8387540 -132.2262734 0.306 0.490 0.184
-6.9924360 98.9487544 -139.6262646 0.208 0.321 0.133
-6.9924360 99.0587547 -132.1162581 0.321 0.502 0.206
-6.9924360 99.8687521 -131.8662614 0.306 0.498 0.180
-6.9824364 98.3687490 -133.5762590 0.258 0.415 0.128
-6.9824364 98.5087529 -134.9962652 0.204 0.333 0.116
-6.9824364 98.9387482 -138.7962699 0.208 0.318 0.124
-6.9824364 98.9987478 -132.0662498 0.318 0.498 0.202
-6.9824364 99.0087539 -140.4962689 0.204 0.314 0.124
-6.9724359 98.5987484 -136.2662613 0.192 0.321 0.112
-6.9724359 98.7587571 -137.4062598 0.204 0.321 0.124
-6.9724359 99.0187526 -140.8662498 0.212 0.318 0.141
-6.9724359 100.7987484 -131.8262666 0.310 0.478 0.198
-6.8924362 98.8687500 -138.7162656 0.219 0.329 0.141
-6.8624360 99.7287482 -131.2562674 0.306 0.498 0.188
-6.8624360 99.9487564 -131.2462687 0.290 0.478 0.180
-6.8024360 98.1887504 -133.3062649 0.247 0.411 0.128
-6.7524360 98.0887562 -132.8862607 0.266 0.427 0.128
-6.7524360 98.9287496 -131.2162578 0.306 0.490 0.184
-6.7324364 98.1587544 -133.8362545 0.223 0.380 0.133
-6.7024361 98.1887504 -134.6162558 0.204 0.341 0.120
-6.5724365 98.0087444 -132.0462674 0.286 0.455 0.133
-6.4624362 98.1887504 -135.5162710 0.196 0.321 0.124
-6.4324359 98.0687514 -131.2662661 0.270 0.443 0.133
-6.1824359 98.4887481 -133.7362677 0.247 0.423 0.159
-6.1724363 97.7987424 -132.6862574 0.314 0.467 0.202
-6.1724363 98.2187539 -135.2962703 0.314 0.447 0.206
-6.1724363 98.3587578 -137.3162717 0.215 0.321 0.145
-6.1624362 98.1687531 -135.8862817 0.258 0.376 0.163
-6.1624362 98.4387547 -133.3562583 0.262 0.423 0.163
-6.1624362 98.5687524 -138.4862661 0.227 0.329 0.145
-6.1524357 98.2487500 -136.5362704 0.227 0.345 0.149
-6.1524357 98.4187573 -134.4362646 0.286 0.443 0.196
-6.1524357 98.6587554 -139.0362680 0.219 0.329 0.141
-6.1424361 97.7687538 -131.3162595 0.298 0.463 0.163
-6.1424361 98.7287536 -140.0662512 0.212 0.329 0.133
-6.1024362 98.1987491 -135.5962604 0.302 0.423 0.198
-6.0924357 98.2087553 -132.8862607 0.286 0.427 0.176
-5.7324362 99.0287513 -133.9562684 0.149 0.247 0.081
-5.6724362 99.0287513 -137.1762753 0.204 0.314 0.120
-5.6724362 99.0387574 -133.4962547 0.125 0.208 0.077
-5.6524356 99.0187526 -135.0562721 0.188 0.321 0.085
-5.6324359 98.2887596 -131.8262666 0.266 0.427 0.192
-5.6224354 99.0287513 -136.8562579 0.196 0.306 0.112
-5.6024361 99.0287513 -135.4762763 0.180 0.302 0.069
-5.5624363 99.0687460 -138.0162686 0.180 0.290 0.102
-5.4724361 98.2487500 -131.2962621 0.329 0.478 0.245
-5.4424363 99.0187526 -138.8262659 0.192 0.294 0.116
-5.4224362 99.1187543 -132.8862607 0.098 0.196 0.077
-5.4224362 107.2387472 -140.8562660 0.188 0.310 0.085
-5.3424360 98.8587514 -140.8862770 0.251 0.341 0.167
-5.3424360 98.9487544 -132.3562562 0.137 0.231 0.106
-5.3424360 99.1287529 -139.4062638 0.180 0.270 0.106
-5.3424360 99.3487537 -133.7762624 0.165 0.274 0.085
-5.3424360 99.3687510 -136.0362768 0.196 0.318 0.085
-5.3424360 99.4087532 -136.6162747 0.180 0.294 0.073
-5.3424360 99.4587541 -134.4162524 0.204 0.353 0.120
-5.3424360 99.5087475 -137.5462711 0.176 0.286 0.085
-5.3424360 99.5787531 -138.0562782 0.172 0.278 0.077
-5.3424360 107.3887572 -140.4062659 0.161 0.278 0.065
-5.3424360 107.4787527 -140.2662694 0.157 0.266 0.065
-5.3324359 98.7687483 -139.8062557 0.239 0.357 0.152
-5.3324359 99.1587490 -139.6462619 0.165 0.251 0.098
-5.3324359 99.4587541 -135.0362748 0.219 0.372 0.116
-5.3324359 107.1687564 -140.7162696 0.208 0.321 0.109
-5.3124363 98.7987518 -131.9762617 0.192 0.290 0.163
-5.3124363 100.4287601 -141.0662681 0.106 0.161 0.063
-14.1224358 105.8087572 -129.3862611 0.678 0.804 0.504
-14.0924361 105.7487503 -131.0762614 0.651 0.784 0.455
-14.0724359 105.8587581 -130.4562688 0.698 0.808 0.512
-14.0624363 105.9787422 -125.8162558 0.659 0.792 0.455
-14.0424352 105.8787555 -127.6662648 0.682 0.804 0.498
-14.0424352 106.0387492 -125.5262643 0.631 0.765 0.435
-14.0324356 105.8987528 -124.0962595 0.619 0.741 0.435
-14.0224360 105.8587581 -126.4062524 0.635 0.761 0.435
-14.0024358 105.7687476 -128.7162602 0.612 0.722 0.418
-14.0024358 105.9787422 -123.8662675 0.659 0.788 0.447
-14.0024358 106.0187519 -122.6762682 0.678 0.792 0.469
-13.9924362 105.5987552 -131.0962737 0.451 0.568 0.278
-13.9824357 106.0587466 -121.4262694 0.659 0.780 0.473
-13.9824357 106.0587466 -121.1462542 0.651 0.780 0.469
-13.9724361 99.1487503 -121.1962551 0.404 0.596 0.284
-13.9424363 99.2387459 -121.4462668 0.380 0.573 0.262
-13.9224362 105.5987552 -129.4262558 0.372 0.494 0.219
-13.8924364 105.5687517 -129.6662539 0.321 0.435 0.176
-13.8824359 98.8487527 -121.5062663 0.337 0.529 0.210
-13.8824359 99.8487473 -121.4362606 0.372 0.560 0.262
-13.8424356 105.5887491 -128.2262504 0.306 0.415 0.176
-13.8224363 99.6787548 -122.2462580 0.341 0.525 0.219
-13.8224363 99.9987498 -122.2462580 0.353 0.537 0.231
-13.8224363 100.6987467 -121.4662641 0.364 0.545 0.257
-13.8224363 100.6987467 -121.2062612 0.364 0.545 0.257
-13.8024352 98.1687531 -121.5262637 0.361 0.549 0.219
-13.8024352 105.5887491 -126.7962605 0.274 0.372 0.155
-13.7924356 106.4387485 -121.6562688 0.435 0.592 0.317
-13.7824360 106.4387485 -125.6062686 0.431 0.573 0.332
-13.7824360 106.4387485 -121.2062612 0.447 0.592 0.317
-13.7724364 100.8087546 -122.3862693 0.357 0.541 0.235
-13.7724364 105.5587456 -127.5762618 0.294 0.380 0.188
-13.7724364 105.5887491 -125.9262711 0.286 0.392 0.176
-13.7624359 106.4387485 -127.0162612 0.380 0.533 0.284
-13.7524344 106.4387485 -122.9362711 0.447 0.608 0.309
-13.7524344 106.4587459 -127.5562644 0.376 0.517 0.278
-13.7424367 105.5787504 -125.1962632 0.239 0.357 0.145
-13.7424367 106.4387485 -124.2862642 0.435 0.588 0.325
-13.7424367 106.4487547 -123.1862605 0.459 0.608 0.321
-13.7424367 106.4887568 -128.0762702 0.400 0.541 0.300
-13.7224356 101.4887542 -121.8262613 0.368 0.549 0.266
-13.7224356 105.5987552 -124.4862676 0.255 0.372 0.159
-13.7224356 106.4387485 -128.8962662 0.380 0.537 0.300
-13.7224356 106.5087542 -125.4162639 0.384 0.533 0.292
-13.7024345 98.9987478 -122.4462613 0.302 0.486 0.180
-13.6924358 106.4487547 -129.6962649 0.368 0.525 0.288
-13.6824362 100.5487517 -123.0962649 0.341 0.529 0.231
-13.6824362 101.5287489 -122.2862601 0.380 0.560 0.278
-13.6824362 105.5887491 -121.4962676 0.247 0.364 0.167
-13.6724357 105.5987552 -122.4162653 0.247 0.357 0.167
-13.6524364 100.9187549 -123.1562570 0.341 0.521 0.227
-13.6524364 105.5887491 -123.6762628 0.243 0.349 0.149
-13.6424359 105.5487543 -121.1662665 0.227 0.353 0.159
-13.6224348 99.4887576 -123.1262684 0.337 0.517 0.223
-13.6224348 106.4487547 -131.1062574 0.361 0.517 0.282
-13.5824354 97.8987515 -121.1462542 0.400 0.576 0.241
-13.5824354 98.0287567 -121.5262637 0.388 0.568 0.223
-13.5824354 99.3087441 -123.2562661 0.333 0.513 0.219
-13.5824354 101.1587530 -123.4962642 0.318 0.502 0.219
-13.5824354 101.5087515 -123.1662706 0.364 0.553 0.262
-13.5824354 101.7787531 -122.5062609 0.380 0.560 0.278
-13.5824354 101.9087508 -121.4762703 0.364 0.545 0.262
-13.5824354 105.2787453 -130.1662624 0.235 0.349 0.159
-13.5824354 105.4087505 -124.6762723 0.223 0.337 0.155
-13.5824354 105.4687500 -121.6962561 0.266 0.380 0.192
-13.5824354 105.5187508 -123.1362596 0.227 0.337 0.145
-13.5824354 106.5987498 -130.2562505 0.325 0.498 0.266
-13.5824354 106.6687480 -122.8762642 0.357 0.533 0.270
-13.5824354 106.6987514 -124.7662678 0.345 0.510 0.262
-13.5824354 106.7387462 -123.3762652 0.341 0.506 0.253
-13.5824354 106.7387462 -121.3962659 0.396 0.553 0.305
-13.5824354 106.7587435 -127.6262701 0.361 0.498 0.270
-13.5824354 106.7587435 -126.9762516 0.341 0.498 0.253
-13.5824354 106.7687497 -128.1162500 0.361 0.498 0.270
-13.5824354 106.8587527 -123.8962635 0.333 0.490 0.245
-13.5824354 107.2687507 -130.9162527 0.266 0.415 0.192
-13.5824354 107.4787527 -128.7662685 0.247 0.384 0.163
-13.5824354 107.4887440 -127.9762685 0.247 0.396 0.163
-13.5824354 107.5087562 -125.9062588 0.266 0.415 0.192
-13.5724358 98.4387547 -122.3162636 0.353 0.537 0.231
-13.5724358 99.8687521 -123.1762618 0.314 0.498 0.192
-13.5724358 105.3487509 -128.8762689 0.294 0.419 0.227
-13.5724358 105.4187492 -124.8762608 0.231 0.345 0.163
-13.5724358 106.5387577 -131.1262697 0.349 0.506 0.270
-13.5724358 106.7487597 -121.4562580 0.392 0.549 0.305
-13.5724358 106.9287509 -125.5762577 0.325 0.482 0.239
-13.5724358 107.2787493 -130.1162541 0.274 0.419 0.214
-13.5724358 107.3987484 -129.6362728 0.231 0.376 0.171
-13.5624362 105.3387523 -126.2962669 0.231 0.364 0.163
-13.5624362 105.3487509 -127.8162748 0.239 0.345 0.176
-13.5524357 105.3287536 -126.5162677 0.231 0.357 0.159
-13.5424361 98.2187539 -121.8062639 0.392 0.580 0.241
-13.5424361 106.6887453 -129.3362528 0.333 0.482 0.257
-13.5324365 105.4587588 -122.7262691 0.255 0.368 0.188
-13.5224350 100.7087529 -123.9062548 0.329 0.517 0.227
-13.5024358 98.2387513 -121.3062704 0.364 0.576 0.206
-13.5024358 100.6187499 -123.9862591 0.314 0.502 0.210
-13.4924361 98.8987535 -123.2162714 0.294 0.463 0.180
-13.4824365 101.5287489 -123.8962635 0.337 0.525 0.235
-13.4824365 105.2887589 -128.6862642 0.325 0.459 0.262
-13.4424362 99.0787521 -121.4462668 0.329 0.529 0.167
-13.4024359 99.9187455 -121.2962642 0.376 0.588 0.202
-13.3924372 99.8787507 -121.4662641 0.368 0.580 0.202
-13.3924372 105.9587449 -126.0762662 0.290 0.467 0.141
-13.3824358 99.7087508 -124.0762621 0.278 0.459 0.171
-13.3824358 105.8887467 -125.2862662 0.286 0.463 0.145
-13.3624366 102.3887545 -122.3062575 0.349 0.537 0.245
-13.3624366 105.7887599 -129.2662621 0.262 0.439 0.112
-13.3624366 105.8587581 -128.7162602 0.270 0.439 0.124
-13.3624366 105.8887467 -124.6062592 0.306 0.478 0.145
-13.3524360 105.7587489 -126.4962703 0.262 0.439 0.112
-13.3424345 102.3587510 -121.8262613 0.353 0.537 0.253
-13.3424345 105.7187542 -129.8062652 0.290 0.459 0.145
-13.3324359 100.7387564 -121.6562688 0.337 0.553 0.155
-13.3324359 105.7887599 -123.7962618 0.258 0.455 0.120
-13.3324359 105.9387475 -127.5862604 0.310 0.498 0.167
-13.3324359 105.9787422 -122.7762625 0.329 0.506 0.180
-13.3224363 104.5887470 -124.2162660 0.314 0.463 0.231
-13.3124357 100.5287543 -124.7262657 0.278 0.455 0.184
-13.3124357 103.6887541 -122.1162677 0.266 0.423 0.180
-13.3124357 103.7587598 -122.3062575 0.302 0.459 0.214
-13.3124357 105.9287563 -122.2062707 0.302 0.478 0.152
-13.3024361 100.7387564 -124.7362569 0.290 0.470 0.188
-13.3024361 104.6987548 -123.8162592 0.306 0.455 0.223
-13.2924346 105.6787521 -130.6762546 0.298 0.474 0.149
-13.2824359 103.9687544 -121.9462678 0.318 0.474 0.239
-13.2824359 103.9887518 -122.4962622 0.321 0.478 0.235
-13.2724363 98.8687500 -124.0262613 0.262 0.443 0.159
-13.2624358 104.6287566 -124.7162595 0.321 0.470 0.245
-13.2524353 100.2487466 -123.0262667 0.310 0.506 0.155
-13.2424356 99.6587425 -122.2462580 0.329 0.541 0.171
-13.2424356 100.8687541 -122.4762648 0.353 0.564 0.180
-13.2324360 104.7787443 -126.6262680 0.314 0.463 0.239
-13.2224355 103.6287546 -123.0762601 0.251 0.415 0.163
-13.2224355 103.8287506 -124.1462603 0.314 0.470 0.227
-13.2224355 104.7587544 -127.7462691 0.302 0.447 0.235
-13.2224355 104.7587544 -126.2862682 0.306 0.455 0.223
-13.2124359 101.5387550 -124.8962581 0.325 0.510 0.227
-13.2124359 102.4887487 -123.1462732 0.368 0.549 0.262
-13.2124359 104.7287434 -128.1562597 0.306 0.439 0.239
-13.2024363 98.1287435 -123.5962659 0.407 0.592 0.278
-13.2024363 99.7387469 -124.7262657 0.282 0.463 0.180
-13.2024363 104.0587574 -121.3462651 0.310 0.474 0.227
-13.1824361 104.6787575 -129.0462613 0.302 0.435 0.239
-13.1724356 103.9587483 -124.7862652 0.318 0.467 0.235
-13.1524364 103.9287522 -126.3762712 0.318 0.463 0.249
-13.1524364 103.9287522 -126.3162643 0.321 0.467 0.253
-13.1024364 104.8787534 -124.5062649 0.274 0.451 0.124
-13.0924359 98.1087461 -123.9262670 0.396 0.588 0.270
-13.0924359 100.4587561 -125.5662590 0.266 0.435 0.163
-13.0924359 101.0187566 -125.5762577 0.298 0.467 0.196
-13.0924359 101.6487479 -125.6762594 0.341 0.510 0.231
-13.0924359 103.0087397 -123.8962635 0.274 0.439 0.180
-13.0924359 103.8887501 -127.2662729 0.274 0.419 0.206
-13.0724367 98.8987535 -124.7162595 0.251 0.431 0.149
-13.0624352 103.9587483 -128.3262670 0.278 0.423 0.210
-13.0424360 103.0087397 -124.8862669 0.278 0.435 0.188
-13.0324364 101.7287523 -126.4262646 0.384 0.549 0.288
-13.0324364 103.8787514 -129.1862577 0.282 0.431 0.206
-12.9924361 101.3587490 -126.4262646 0.318 0.474 0.227
-12.9824365 102.9687524 -125.6662607 0.266 0.423 0.180
-12.9424362 99.7687504 -125.7362664 0.270 0.451 0.163
-12.9424362 101.5087515 -131.0362667 0.376 0.529 0.313
-12.9424362 103.0587479 -126.4162660 0.258 0.415 0.180
-12.9224360 103.2687426 -129.7962666 0.266 0.431 0.184
-12.9024358 100.5687490 -126.3862550 0.282 0.443 0.184
-12.9024358 103.1287462 -127.2062659 0.262 0.411 0.180
-12.8824348 101.2887508 -130.4662675 0.384 0.541 0.336
-12.8724352 97.7187604 -130.4662675 0.384 0.560 0.327
-12.8724352 100.1387462 -130.4362714 0.380 0.537 0.327
-12.8724352 101.5387550 -130.4462552 0.364 0.521 0.317
-12.8624365 98.4487534 -130.4562688 0.380 0.549 0.336
-12.8624365 103.0487493 -129.8962533 0.274 0.431 0.188
-12.8424354 98.1587544 -124.8362660 0.368 0.537 0.253
-12.8424354 99.0187526 -130.4362714 0.400 0.556 0.353
-12.8424354 103.0887514 -129.6262592 0.270 0.427 0.192
-12.8424354 103.0887514 -128.1262636 0.258 0.407 0.184
-12.8324348 98.9687592 -125.6462634 0.274 0.443 0.163
-12.8124375 101.3787538 -127.2162646 0.251 0.407 0.159
-12.8024360 101.5387550 -127.2562593 0.262 0.419 0.171
-12.7624357 98.0687514 -124.4762540 0.400 0.584 0.270
-12.7624357 98.3687490 -125.4062653 0.314 0.478 0.227
-12.7624357 98.6387581 -123.8262653 0.329 0.525 0.192
-12.7624357 98.7087563 -125.6862581 0.270 0.435 0.176
-12.7624357 99.0787521 -123.7062588 0.282 0.474 0.152
-12.7624357 99.4487479 -130.1262677 0.353 0.510 0.300
-12.7624357 99.5487496 -126.2862682 0.302 0.467 0.206
-12.7624357 99.6887535 -126.3762712 0.290 0.455 0.196
-12.7624357 100.0987515 -124.3462712 0.286 0.470 0.152
-12.7624357 100.2287418 -126.6962588 0.278 0.443 0.184
-12.7624357 100.4987583 -129.9262643 0.337 0.494 0.284
-12.7624357 100.8987501 -127.1462590 0.298 0.455 0.206
-12.7624357 101.0387465 -127.2562593 0.294 0.451 0.202
-12.7624357 101.0887548 -129.9062669 0.376 0.529 0.321
-12.7624357 101.5087515 -125.4162639 0.286 0.478 0.128
-12.7624357 101.9187570 -127.0662546 0.321 0.482 0.223
-12.7624357 102.1487489 -130.9562624 0.396 0.560 0.313
-12.7624357 102.5387496 -126.6062558 0.353 0.517 0.257
-12.7624357 102.6887521 -130.1262677 0.310 0.474 0.223
-12.7624357 102.7087495 -124.6362701 0.318 0.513 0.141
-12.7624357 102.7787477 -127.5362670 0.251 0.400 0.159
-12.7624357 102.8987467 -128.3662617 0.258 0.407 0.184
-12.7624357 102.9787511 -129.3062717 0.286 0.443 0.206
-12.7624357 103.5187542 -130.0862581 0.306 0.474 0.202
-12.7624357 103.6287546 -124.3562624 0.278 0.455 0.128
-12.7624357 103.7287489 -128.1962693 0.286 0.474 0.145
-12.7624357 103.8287506 -127.7062595 0.266 0.443 0.116
-12.7624357 103.8987488 -125.2362579 0.274 0.463 0.133
-12.7624357 103.9387509 -127.0362586 0.262 0.435 0.124
-12.7624357 103.9687544 -126.9862652 0.266 0.439 0.128
-12.7624357 104.3887585 -130.6562722 0.258 0.419 0.159
-12.7624357 105.0387472 -130.8262646 0.341 0.502 0.196
-12.7624357 106.4387485 -130.3362697 0.314 0.478 0.180
-12.7624357 106.9887578 -128.6562681 0.290 0.482 0.124
-12.7524361 98.0387479 -125.0562668 0.396 0.576 0.292
-12.7524361 99.5187461 -123.9462644 0.302 0.494 0.176
-12.7524361 100.5887538 -124.7662678 0.278 0.467 0.137
-12.7524361 101.2287512 -125.2762675 0.290 0.482 0.159
-12.7524361 101.4987454 -129.9362630 0.380 0.537 0.332
-12.7524361 101.7287523 -125.5862713 0.321 0.517 0.145
-12.7524361 102.3187563 -130.8062524 0.407 0.573 0.325
-12.7524361 102.4387479 -124.8462647 0.290 0.494 0.102
-12.7524361 103.4487560 -129.6362728 0.294 0.470 0.152
-12.7524361 103.9487571 -125.6662607 0.282 0.470 0.141
-12.7524361 103.9687544 -125.9962618 0.270 0.447 0.128
-12.7524361 105.7287529 -131.0062557 0.278 0.443 0.145
-12.7424365 98.2687473 -130.1562637 0.392 0.549 0.340
-12.7324350 101.5587524 -127.4262667 0.262 0.419 0.171
-12.7324350 106.9787517 -128.8662553 0.310 0.486 0.152
-12.7224363 98.3987525 -124.1862699 0.384 0.580 0.231
-12.7124358 107.3187590 -128.0662715 0.298 0.490 0.133
-12.7024362 100.4887447 -129.6462566 0.333 0.486 0.278
-12.7024362 101.1787504 -129.5962632 0.361 0.517 0.309
-12.6924366 100.5387530 -127.1962672 0.298 0.455 0.206
-12.6924366 101.3987511 -125.6362647 0.290 0.482 0.133
-12.6924366 101.5087515 -129.6462566 0.368 0.525 0.317
-12.6824360 103.8787514 -130.5562705 0.286 0.447 0.188
-12.6424357 101.3887450 -128.0462593 0.274 0.431 0.184
-12.6324361 98.7587571 -129.8862547 0.419 0.576 0.369
-12.6324361 99.5587558 -129.6462566 0.357 0.510 0.300
-12.6324361 101.6287506 -128.0462593 0.282 0.439 0.192
-12.6224356 98.1487408 -125.7462651 0.298 0.463 0.202
-12.6024354 102.4287492 -125.6862581 0.302 0.502 0.098
-12.5824353 98.7887532 -126.3962686 0.278 0.443 0.184
-12.5624361 98.9687592 -129.5762658 0.407 0.560 0.336
-12.5624361 99.6587425 -127.2962689 0.294 0.459 0.198
-12.5624361 100.6487459 -128.1062663 0.306 0.463 0.219
-12.5424359 100.5987525 -125.5662590 0.266 0.451 0.133
-12.5324363 99.5787531 -124.7462630 0.325 0.517 0.206
-12.4724358 99.7787490 -128.7562698 0.329 0.490 0.253
-12.4324346 98.1887504 -126.4762729 0.314 0.474 0.206
-12.4324346 107.3587462 -128.8662553 0.321 0.490 0.167
-12.4024367 98.9887565 -128.7962645 0.392 0.545 0.321
-12.3724360 98.8287479 -127.3562610 0.274 0.439 0.188
-12.3724360 106.3487530 -130.4562688 0.274 0.451 0.133
-12.2224353 98.1187522 -127.2662729 0.321 0.490 0.219
-12.0224366 101.3087481 -130.4862499 0.321 0.525 0.133
-11.9324364 97.8687480 -129.3862611 0.349 0.549 0.184
-11.9324364 98.1987491 -129.3962747 0.318 0.513 0.133
-11.9324364 98.3687490 -126.0262728 0.325 0.529 0.196
-11.9324364 99.1287529 -128.8662553 0.290 0.510 0.128
-11.9324364 99.4087532 -127.0462573 0.270 0.474 0.141
-11.9324364 99.4487479 -128.3062547 0.286 0.498 0.128
-11.9324364 99.4887576 -127.9562712 0.290 0.486 0.145
-11.9324364 105.3687483 -130.6062639 0.262 0.384 0.159
-11.9324364 105.7787463 -130.5462718 0.251 0.364 0.152
-11.9324364 106.6487506 -130.0962716 0.510 0.600 0.418
-11.9224358 98.9587456 -126.5162677 0.278 0.482 0.155
-11.9224358 100.7887572 -130.9362650 0.298 0.513 0.116
-11.9224358 102.5787517 -130.5362582 0.314 0.478 0.141
-11.9224358 103.7787572 -130.5162609 0.353 0.502 0.214
-11.9224358 106.3587517 -130.3262562 0.302 0.470 0.159
-11.9224358 107.5187474 -129.4162571 0.388 0.490 0.305
-11.9124353 101.5587524 -130.6562722 0.314 0.517 0.124
-11.9024366 104.4687554 -130.6162626 0.337 0.459 0.227
-11.8824355 98.8987535 -128.7162602 0.302 0.513 0.137
-11.8724359 107.3187590 -129.6862662 0.490 0.521 0.439
-11.8024359 98.9287496 -127.2062659 0.294 0.490 0.149
-11.4924368 105.5087447 -130.4762661 0.392 0.443 0.332
-11.1124367 102.4587527 -130.9162527 0.396 0.494 0.266
-11.1124367 104.8187539 -130.4562688 0.513 0.521 0.469
-11.1024361 104.1487530 -130.5562705 0.455 0.506 0.396
-11.0724354 106.4487547 -130.1562637 0.380 0.470 0.288
-11.0624358 106.1787456 -130.2162558 0.380 0.482 0.305
-11.0324360 103.8887501 -130.5762678 0.384 0.478 0.288
-10.9124351 104.6987548 -130.4562688 0.513 0.533 0.447
-10.2924360 103.8887501 -130.5462718 0.341 0.459 0.214
-10.2824355 107.2887480 -129.9362630 0.443 0.506 0.353
-10.2724358 105.1087528 -130.2962601 0.380 0.470 0.249
-10.2724358 107.0487499 -129.9762577 0.415 0.506 0.332
-10.2624362 104.2887494 -130.4462552 0.380 0.474 0.278
-10.2024367 105.8387458 -130.1462650 0.345 0.470 0.206
-10.1224352 104.0187553 -130.4862499 0.318 0.431 0.202
-9.7524356 103.9287522 -130.4462552 0.290 0.427 0.167
-9.4624357 104.4287458 -130.2362680 0.270 0.439 0.128
-9.4624357 105.5487543 -130.0262660 0.251 0.427 0.109
-9.4524361 103.2787487 -130.6662560 0.310 0.451 0.176
-9.4424365 103.6987528 -130.4762661 0.286 0.443 0.163
-9.4424365 106.9087535 -129.9162656 0.266 0.451 0.137
