-16.2993893 -53.7913628 -46.4008339 0.149 0.192 0.128
-16.2893888 -52.5013655 -46.9908342 0.255 0.314 0.223
-16.2693877 -51.3813645 -48.7308353 0.380 0.431 0.365
-16.2593890 -51.3913594 -48.7808362 0.392 0.435 0.371
-16.2493885 -51.4013618 -48.1708348 0.208 0.258 0.219
-16.2193868 -52.4813607 -49.3808351 0.713 0.745 0.693
-16.2093882 -52.5813624 -49.3908338 0.768 0.792 0.745
-16.1993876 -52.7913645 -49.3808351 0.670 0.702 0.658
-16.1793903 -51.9813597 -49.3908338 0.659 0.702 0.637
-16.1393862 -52.6213646 -47.0308326 0.196 0.255 0.163
-16.1293894 -53.2213636 -49.3808351 0.619 0.662 0.606
-16.1293894 -51.3613634 -49.4008325 0.596 0.647 0.580
-16.1193889 -54.9913645 -48.7808362 0.467 0.525 0.451
-16.0893872 -56.1913624 -48.2108332 0.443 0.494 0.422
-16.0093885 -54.2613640 -46.1808369 0.145 0.180 0.112
-15.9793887 -50.8113615 -49.2208339 0.376 0.443 0.371
-15.9693882 -50.8113615 -49.4108349 0.451 0.498 0.451
-15.9593876 -50.8113615 -48.7508364 0.262 0.306 0.241
-15.9293897 -51.4513627 -49.9708354 0.666 0.702 0.627
-15.9193892 -51.3313636 -49.9908328 0.647 0.682 0.606
-15.8793870 -52.0613641 -49.9708354 0.647 0.670 0.615
-15.8393886 -53.8613610 -49.4108349 0.517 0.564 0.508
-15.8393886 -53.4313619 -47.0008329 0.223 0.255 0.163
-15.8393886 -50.8113615 -49.9808341 0.521 0.564 0.508
-15.8293881 -50.9413593 -50.1908325 0.486 0.529 0.465
-15.7793891 -52.7213626 -49.9708354 0.674 0.698 0.658
-15.7393888 -56.6113628 -46.0008346 0.157 0.192 0.124
-15.7393888 -56.1513603 -48.4108366 0.431 0.482 0.412
-15.7393888 -55.4013625 -46.0708328 0.161 0.204 0.137
-15.7393888 -55.1213659 -48.9708334 0.435 0.490 0.422
-15.7393888 -54.9613610 -49.0308329 0.435 0.502 0.430
-15.7393888 -54.4413589 -46.0708328 0.176 0.204 0.133
-15.7393888 -54.2613640 -49.3108369 0.474 0.529 0.461
-15.7393888 -54.1713648 -46.2208353 0.121 0.157 0.090
-15.7393888 -53.9913587 -46.4808382 0.165 0.200 0.124
-15.7393888 -53.7713617 -49.5708361 0.517 0.564 0.508
-15.7393888 -53.3613637 -47.0508337 0.243 0.278 0.171
-15.7393888 -52.9813617 -49.9308370 0.619 0.651 0.606
-15.7393888 -52.9813617 -47.1008345 0.153 0.212 0.120
-15.7393888 -52.8313629 -49.9808341 0.635 0.666 0.623
-15.7393888 -52.5713600 -50.0708334 0.647 0.678 0.627
-15.7393888 -52.4113625 -47.4008359 0.180 0.227 0.141
-15.7393888 -51.9313626 -50.2908342 0.686 0.713 0.649
-15.7393888 -51.7813638 -47.7008335 0.204 0.262 0.171
-15.7393888 -51.3213612 -50.3708348 0.655 0.690 0.623
-15.7393888 -50.9613603 -48.2908338 0.165 0.215 0.137
-15.7393888 -50.8113615 -48.4508350 0.184 0.235 0.163
-15.7393888 -50.7713594 -50.5308360 0.506 0.564 0.490
-15.7393888 -50.3113642 -49.4908318 0.298 0.345 0.288
-15.7393888 -50.3113642 -49.3608341 0.274 0.321 0.282
-15.7293882 -56.5513596 -48.1808335 0.439 0.482 0.414
-15.7293882 -56.1413616 -46.0108332 0.184 0.219 0.145
-15.7293882 -55.5313639 -48.7508364 0.427 0.486 0.412
-15.7293882 -54.0413633 -49.4408384 0.490 0.545 0.486
-15.7293882 -51.2913615 -48.0308346 0.180 0.235 0.145
-15.7293882 -50.8513637 -50.5608357 0.623 0.682 0.606
-15.7293882 -50.8013666 -50.5708344 0.576 0.635 0.559
-15.7193895 -56.3813634 -48.2808352 0.435 0.478 0.412
-15.7193895 -50.2213612 -50.0508361 0.329 0.376 0.321
-15.7093871 -53.6113642 -46.9308309 0.184 0.223 0.128
-15.7093871 -50.2013639 -49.8908348 0.341 0.372 0.321
-15.6993903 -50.2113663 -49.3708290 0.262 0.310 0.270
-15.6793874 -52.0313643 -47.6108342 0.188 0.239 0.159
-15.6693887 -50.1913652 -50.6508313 0.455 0.506 0.439
-15.6493876 -51.5013672 -50.5608357 0.659 0.702 0.637
-15.6193888 -54.4113666 -49.3808351 0.459 0.513 0.447
-15.6093882 -53.2413647 -49.9808341 0.560 0.600 0.555
-15.5793875 -50.4313633 -51.1608347 0.662 0.713 0.641
-15.5693898 -52.0613641 -50.5608357 0.666 0.690 0.633
-15.5693898 -50.1813665 -51.1808358 0.564 0.616 0.537
-15.5393891 -54.6413623 -49.3608341 0.439 0.494 0.426
-15.5393891 -49.6213660 -50.4808314 0.192 0.223 0.180
-15.5293886 -49.6213660 -50.6608337 0.219 0.266 0.219
-15.5093884 -50.8913621 -51.1708334 0.639 0.682 0.615
-15.4993879 -55.6013659 -48.7808362 0.415 0.474 0.400
-15.4993879 -49.6213660 -49.9208346 0.219 0.266 0.210
-15.4893892 -49.6213660 -51.2208380 0.310 0.364 0.313
-15.4693890 -54.5913652 -46.4008339 0.153 0.200 0.120
-15.4493880 -49.8713627 -51.7508350 0.517 0.568 0.498
-15.4193891 -55.5013604 -48.8508381 0.407 0.463 0.396
-15.3993880 -51.4513627 -51.1808358 0.639 0.694 0.627
-15.3893894 -49.6213660 -51.8408343 0.510 0.556 0.500
-15.3793879 -50.2313599 -51.7608374 0.631 0.682 0.615
-15.3493881 -53.8013652 -49.9708354 0.467 0.521 0.461
-15.3493881 -52.6113622 -50.5708344 0.564 0.608 0.551
-15.2993882 -49.0313657 -51.5708365 0.231 0.278 0.239
-15.2893886 -53.1613640 -50.3708348 0.513 0.553 0.508
-15.2793881 -50.8213602 -51.7508350 0.612 0.678 0.602
-15.2793881 -49.0213633 -51.7708361 0.321 0.368 0.321
-15.2693884 -52.8413616 -47.5908332 0.262 0.314 0.196
-15.2493874 -49.2613651 -52.3608364 0.455 0.506 0.435
-15.2393896 -49.0013659 -51.1108376 0.196 0.239 0.184
-15.2193876 -52.0113595 -51.1708334 0.556 0.604 0.547
-15.2193876 -49.7213677 -52.3608364 0.584 0.639 0.547
-15.2093889 -49.0213633 -52.4508320 0.447 0.502 0.435
-15.1793892 -48.8413610 -51.3408333 0.196 0.239 0.214
-15.1693877 -55.0113656 -46.4008339 0.133 0.176 0.109
-15.1593890 -50.2313599 -52.3608364 0.600 0.655 0.563
-15.1493885 -56.6613600 -48.2408330 0.427 0.463 0.396
-15.1493885 -56.1513603 -46.0508354 0.153 0.188 0.120
-15.1493885 -55.5413626 -46.1008362 0.196 0.223 0.159
-15.1493885 -55.1913641 -49.1208360 0.380 0.447 0.375
-15.1493885 -54.7713637 -49.5408326 0.380 0.447 0.375
-15.1493885 -54.7613613 -46.5108342 0.145 0.188 0.120
-15.1493885 -54.3513633 -46.6708317 0.153 0.200 0.120
-15.1493885 -54.2613640 -49.8408340 0.411 0.467 0.408
-15.1493885 -53.9013632 -50.0508361 0.435 0.490 0.430
-15.1493885 -53.7713617 -46.9308309 0.165 0.192 0.120
-15.1493885 -53.7113622 -50.1608364 0.447 0.502 0.443
-15.1493885 -53.5613634 -47.0408313 0.172 0.219 0.141
-15.1493885 -53.0613586 -50.5908355 0.490 0.537 0.490
-15.1493885 -53.0313626 -47.4308357 0.243 0.294 0.176
-15.1493885 -52.3213632 -51.0608330 0.510 0.549 0.504
-15.1493885 -52.1213636 -47.7208346 0.200 0.247 0.167
-15.1493885 -52.1113612 -51.2108356 0.517 0.564 0.516
-15.1493885 -52.0013608 -47.7608331 0.200 0.247 0.167
-15.1493885 -51.9313626 -51.3408333 0.537 0.576 0.533
-15.1493885 -51.2913615 -51.7508350 0.580 0.635 0.568
-15.1493885 -51.2813590 -51.7408364 0.580 0.635 0.568
-15.1493885 -51.0213636 -48.4008379 0.196 0.255 0.163
-15.1493885 -50.7313609 -52.0508364 0.608 0.666 0.576
-15.1493885 -50.4813604 -48.9308350 0.176 0.227 0.155
-15.1493885 -50.0113629 -52.4908341 0.545 0.604 0.512
-15.1493885 -49.5713614 -52.6508316 0.556 0.616 0.525
-15.1493885 -49.3413657 -50.0508361 0.219 0.258 0.214
-15.1493885 -49.0113646 -52.8408363 0.482 0.549 0.477
-15.1493885 -48.9713624 -50.8808345 0.176 0.231 0.171
-15.1493885 -48.8413610 -51.1608347 0.180 0.235 0.184
-15.1493885 -48.5713631 -51.8808365 0.302 0.368 0.305
-15.1393879 -56.5513596 -46.0408367 0.165 0.200 0.133
-15.1393879 -55.8913611 -48.6908332 0.396 0.447 0.379
-15.1393879 -55.7113662 -48.8008335 0.392 0.447 0.379
-15.1393879 -54.9713597 -49.3508354 0.376 0.443 0.371
-15.1393879 -50.7513620 -48.6508384 0.192 0.243 0.163
-15.1393879 -50.3413603 -52.3508377 0.623 0.678 0.576
-15.1393879 -50.0313602 -49.3708290 0.169 0.227 0.145
-15.1393879 -49.6813618 -49.6708341 0.157 0.215 0.141
-15.1393879 -49.6213660 -49.7308336 0.141 0.208 0.133
-15.1393879 -49.1213612 -50.5908355 0.184 0.239 0.171
-15.1293892 -54.9913645 -46.4208387 0.129 0.172 0.106
-15.1293892 -48.8713644 -52.9608354 0.513 0.580 0.508
-15.1293892 -48.4313630 -52.3208305 0.286 0.341 0.282
-15.1193878 -53.1713627 -50.5408309 0.478 0.525 0.477
-15.1193878 -48.4313630 -52.4908341 0.431 0.482 0.447
-15.1093891 -52.7713634 -47.5908332 0.180 0.231 0.128
-15.1093891 -49.0613617 -52.9408380 0.600 0.666 0.594
-15.0893880 -51.4213592 -51.7908335 0.545 0.600 0.541
-15.0793884 -48.4313630 -51.6308360 0.235 0.290 0.231
-15.0693888 -48.7913638 -53.2108359 0.459 0.529 0.435
-15.0693888 -48.4213643 -53.0608371 0.400 0.459 0.383
-15.0593892 -53.2213636 -50.5608357 0.470 0.517 0.469
-15.0493877 -56.7613654 -48.1908396 0.431 0.467 0.400
-15.0393881 -54.9813621 -49.3908338 0.368 0.435 0.365
-15.0393881 -51.3913594 -48.1408350 0.200 0.255 0.155
-15.0393881 -49.6513583 -53.0008338 0.556 0.612 0.512
-14.9893882 -50.9113669 -52.3508377 0.470 0.525 0.422
-14.9693880 -53.9413653 -46.9408371 0.169 0.204 0.137
-14.9593884 -53.7913628 -47.0108390 0.180 0.215 0.149
-14.9293886 -50.2313599 -52.9508367 0.467 0.529 0.422
-14.9193881 -47.8413627 -52.5008366 0.368 0.423 0.357
-14.9193881 -47.8413627 -52.2608347 0.349 0.407 0.325
-14.9093885 -47.8413627 -53.1208292 0.404 0.459 0.392
-14.8493890 -52.6713617 -51.1708334 0.435 0.463 0.430
-14.8293888 -49.6513583 -49.9708354 0.161 0.212 0.141
-14.7593878 -54.3913655 -50.0308387 0.349 0.415 0.353
-14.7593878 -52.0313643 -51.8108383 0.411 0.431 0.408
-14.7393886 -50.2813645 -49.4308323 0.165 0.223 0.141
-14.7093879 -53.1713627 -50.9408340 0.431 0.478 0.430
-14.6893887 -51.4213592 -52.4208322 0.451 0.474 0.435
-14.6893887 -50.8513637 -52.9608354 0.392 0.455 0.404
-14.6393878 -52.5713600 -47.5808345 0.200 0.255 0.155
-14.5493886 -56.4313643 -48.5108346 0.400 0.431 0.371
-14.5493886 -56.2213585 -46.1508371 0.145 0.176 0.116
-14.5493886 -56.0013615 -48.7708338 0.357 0.407 0.340
-14.5493886 -55.7513610 -46.2008342 0.133 0.180 0.102
-14.5493886 -55.5713624 -46.2408327 0.149 0.192 0.128
-14.5493886 -55.3813651 -49.2108352 0.321 0.388 0.317
-14.5493886 -55.1313646 -46.4408323 0.157 0.204 0.124
-14.5493886 -55.0713614 -49.5208353 0.306 0.376 0.313
-14.5493886 -54.9113601 -49.6808365 0.302 0.372 0.309
-14.5493886 -54.7613613 -46.7008352 0.169 0.215 0.137
-14.5493886 -54.5313656 -50.0708334 0.306 0.376 0.313
-14.5493886 -54.2613640 -50.2508357 0.321 0.392 0.327
-14.5493886 -53.9613664 -47.1508354 0.215 0.258 0.141
-14.5493886 -53.7413619 -50.6208315 0.364 0.431 0.369
-14.5493886 -53.7413619 -47.1908338 0.184 0.219 0.145
-14.5493886 -53.0913658 -51.1608347 0.435 0.482 0.435
-14.5493886 -53.0713610 -47.3808311 0.212 0.247 0.171
-14.5493886 -52.5513664 -51.5908338 0.357 0.364 0.344
-14.5493886 -52.5213629 -47.5908332 0.184 0.239 0.149
-14.5493886 -52.2913672 -51.8208370 0.333 0.337 0.317
-14.5493886 -51.9413613 -52.1608368 0.337 0.341 0.317
-14.5493886 -51.7113656 -47.9508378 0.204 0.258 0.167
-14.5493886 -51.6813621 -52.3808338 0.376 0.404 0.371
-14.5493886 -51.3913594 -52.6608340 0.404 0.423 0.396
-14.5493886 -51.3613634 -48.2308343 0.172 0.219 0.141
-14.5493886 -51.0513633 -52.9908389 0.380 0.435 0.383
-14.5493886 -50.8013666 -48.8408320 0.141 0.192 0.112
-14.5493886 -49.7713611 -50.0508361 0.169 0.227 0.137
-14.5493886 -49.6013649 -50.1508340 0.141 0.192 0.112
-14.5493886 -48.9713624 -50.7208370 0.121 0.176 0.109
-14.5493886 -48.6013629 -51.1908345 0.141 0.200 0.124
-14.5493886 -48.4113656 -51.4508337 0.145 0.200 0.133
-14.5493886 -48.1713638 -51.7708361 0.149 0.208 0.133
-14.5493886 -47.7713607 -52.2608347 0.161 0.215 0.149
-14.5493886 -47.6513617 -52.4308346 0.176 0.223 0.167
-14.5393880 -55.7113662 -48.9308350 0.341 0.396 0.327
-14.5393880 -54.3713607 -46.9108336 0.188 0.223 0.149
-14.5393880 -53.1913601 -51.0808341 0.423 0.470 0.422
-14.5393880 -50.3713600 -49.4708382 0.153 0.204 0.124
-14.5393880 -49.0813628 -50.5808331 0.129 0.180 0.109
-14.5293884 -50.2213612 -49.6308319 0.145 0.196 0.116
-14.5193888 -53.8413636 -50.5608357 0.345 0.411 0.349
-14.5093882 -52.5813624 -47.5608371 0.196 0.251 0.159
-14.4793885 -50.8413650 -48.8108359 0.141 0.200 0.116
-14.4693889 -55.1813655 -49.4508371 0.302 0.372 0.309
-14.4493897 -53.2013625 -51.1708334 0.419 0.467 0.418
-14.3993879 -48.1413640 -51.8808365 0.141 0.200 0.124
-14.3493880 -52.6013598 -51.7708361 0.314 0.321 0.300
-14.3393893 -51.4513627 -48.1908396 0.165 0.212 0.124
-14.2993880 -52.0713627 -52.3708351 0.306 0.270 0.282
-14.2993880 -51.4413640 -52.9908389 0.329 0.325 0.317
-14.2293880 -47.8813685 -52.3608364 0.141 0.200 0.116
-13.9693879 -52.6013598 -47.5908332 0.219 0.262 0.196
-13.9593892 -56.7213632 -46.1408347 0.149 0.176 0.112
-13.9593892 -56.2213585 -48.7708338 0.318 0.372 0.313
-13.9593892 -56.1913624 -48.7908348 0.318 0.372 0.313
-13.9593892 -56.1613627 -46.2608337 0.157 0.192 0.116
-13.9593892 -55.9013598 -48.9708334 0.270 0.337 0.274
-13.9593892 -55.4013625 -49.4708382 0.212 0.294 0.227
-13.9593892 -54.9213625 -46.6708317 0.188 0.215 0.152
-13.9593892 -54.4613637 -50.4608341 0.208 0.298 0.227
-13.9593892 -54.3613620 -50.5708344 0.208 0.298 0.227
-13.9593892 -54.1313663 -47.0008329 0.196 0.227 0.167
-13.9593892 -53.7013635 -51.1808358 0.298 0.368 0.305
-13.9593892 -53.6813624 -47.1308343 0.208 0.255 0.176
-13.9593892 -53.1613640 -51.6708344 0.302 0.372 0.309
-13.9593892 -53.0713610 -51.7508350 0.215 0.298 0.223
-13.9593892 -53.0713610 -47.4008359 0.204 0.255 0.184
-13.9593892 -52.5413640 -47.6208329 0.212 0.255 0.192
-13.9593892 -52.3113646 -52.5808334 0.231 0.212 0.227
-13.9593892 -51.9313626 -53.0108362 0.129 0.129 0.137
-13.9593892 -51.8113598 -47.9708314 0.215 0.266 0.188
-13.9593892 -51.3913594 -48.3008362 0.165 0.215 0.137
-13.9593892 -50.9613603 -48.7908348 0.133 0.184 0.106
-13.9593892 -50.8113615 -48.9808396 0.125 0.176 0.098
-13.9593892 -50.2913631 -49.5208353 0.133 0.176 0.109
-13.9593892 -50.1813665 -49.6108308 0.125 0.169 0.102
-13.9593892 -49.6013649 -50.1108356 0.117 0.169 0.090
-13.9593892 -49.1013601 -50.6808311 0.125 0.176 0.098
-13.9593892 -48.9213616 -50.9108342 0.121 0.172 0.102
-13.9593892 -48.6413613 -51.3708331 0.129 0.180 0.109
-13.9593892 -48.3813621 -51.7708361 0.125 0.176 0.098
-13.9593892 -47.9113609 -52.5108352 0.157 0.208 0.128
-13.9593892 -47.7213636 -52.7608320 0.149 0.208 0.124
-13.9593892 -47.5913621 -52.9408380 0.149 0.208 0.116
-13.9493877 -55.3913638 -46.4008339 0.169 0.212 0.145
-13.9493877 -53.7513644 -51.1408336 0.294 0.364 0.300
-13.9493877 -52.5913611 -52.2908345 0.145 0.172 0.141
-13.9493877 -51.4913611 -48.2208356 0.165 0.219 0.128
-13.9493877 -48.4013595 -51.7408364 0.125 0.176 0.098
-13.9393890 -54.9613610 -49.9408357 0.188 0.278 0.206
-13.9393890 -54.3113612 -46.9408371 0.196 0.243 0.163
-13.9393890 -49.6813618 -50.0208326 0.117 0.169 0.090
-13.9293894 -55.5713624 -49.3208356 0.223 0.294 0.231
-13.9193879 -55.5513613 -46.3408306 0.157 0.200 0.133
-13.9093883 -56.7613654 -48.2608378 0.423 0.439 0.383
-13.8993887 -52.0613641 -52.9608354 0.176 0.169 0.171
-13.8693880 -54.4113666 -50.5708344 0.208 0.298 0.227
-13.8493879 -54.9913645 -49.9708354 0.200 0.290 0.219
-13.8393883 -53.8113639 -51.1608347 0.278 0.349 0.284
-13.8393883 -52.6013598 -52.3808338 0.239 0.321 0.245
-13.8193881 -48.4413616 -51.7508350 0.133 0.184 0.106
-13.7493880 -55.6013659 -49.3808351 0.188 0.278 0.206
-13.7493880 -53.2113649 -51.7808348 0.227 0.310 0.241
-13.7493880 -52.6813641 -47.6108342 0.196 0.239 0.176
-13.7093887 -48.4213643 -51.8508330 0.129 0.180 0.109
-13.6293890 -52.7813658 -52.3608364 0.231 0.321 0.249
-13.5493893 -54.1613623 -51.0508344 0.215 0.298 0.231
-13.4693878 -48.0913669 -52.5208339 0.133 0.184 0.112
-13.4093873 -56.7313619 -48.1608361 0.455 0.463 0.418
-13.3993896 -52.6013598 -52.9608354 0.239 0.310 0.245
-13.3893881 -48.7513654 -51.3708331 0.125 0.176 0.106
-13.3593883 -56.3913621 -48.5408381 0.388 0.419 0.375
-13.3593883 -56.3513599 -46.2208353 0.161 0.188 0.116
-13.3593883 -56.0813621 -46.1908355 0.149 0.176 0.112
-13.3593883 -55.7613596 -49.4408384 0.208 0.298 0.227
-13.3593883 -55.5613600 -46.4108363 0.176 0.223 0.145
-13.3593883 -55.4513671 -49.7908369 0.196 0.286 0.214
-13.3593883 -55.2513674 -50.0108339 0.192 0.274 0.206
-13.3593883 -54.9513623 -50.3308326 0.188 0.278 0.206
-13.3593883 -54.9013577 -46.7908308 0.188 0.235 0.155
-13.3593883 -54.5313656 -50.7808328 0.208 0.290 0.223
-13.3593883 -54.2813651 -51.0408357 0.215 0.298 0.223
-13.3593883 -54.1113615 -51.2208380 0.227 0.310 0.249
-13.3593883 -53.7113622 -47.2908355 0.204 0.235 0.184
-13.3593883 -53.6313616 -51.6608320 0.227 0.310 0.241
-13.3593883 -53.4613617 -51.8308319 0.212 0.294 0.219
-13.3593883 -53.0813634 -52.2608347 0.208 0.298 0.227
-13.3593883 -52.6413620 -52.9708341 0.239 0.310 0.245
-13.3593883 -52.5913611 -53.0308336 0.239 0.310 0.253
-13.3593883 -52.4013601 -47.9008332 0.149 0.196 0.141
-13.3593883 -51.7213643 -48.3308360 0.133 0.184 0.112
-13.3593883 -51.3813645 -48.6108363 0.141 0.192 0.112
-13.3593883 -50.9913638 -48.9608347 0.133 0.184 0.106
-13.3593883 -50.5613610 -49.3008345 0.141 0.192 0.112
-13.3593883 -49.8113632 -49.9508306 0.125 0.172 0.094
-13.3593883 -49.3713617 -50.3808372 0.129 0.180 0.109
-13.3593883 -49.2013656 -50.6108329 0.117 0.169 0.098
-13.3593883 -48.8413610 -51.1908345 0.129 0.180 0.109
-13.3593883 -48.5613644 -51.7808348 0.137 0.188 0.116
-13.3593883 -48.1113642 -52.5508337 0.137 0.188 0.116
-13.3593883 -47.7113649 -53.0708358 0.137 0.196 0.120
-13.3493887 -56.1413616 -48.8608368 0.282 0.353 0.296
-13.3493887 -54.4113666 -47.0008329 0.188 0.231 0.163
-13.3493887 -54.3013625 -47.0408313 0.208 0.251 0.184
-13.3493887 -53.1813614 -47.5208312 0.192 0.243 0.171
-13.3493887 -53.0113652 -52.3808338 0.223 0.314 0.241
-13.3493887 -52.8613627 -47.6808362 0.176 0.219 0.155
-13.3493887 -49.6813618 -50.0708334 0.129 0.172 0.106
-13.3493887 -48.4113656 -52.0608313 0.141 0.192 0.112
-13.3393882 -55.6013659 -46.4008339 0.180 0.227 0.149
-13.3393882 -51.9813597 -48.1608361 0.133 0.184 0.116
-13.3393882 -47.8413627 -52.9008321 0.133 0.184 0.112
-13.3293876 -56.7113645 -48.1608361 0.463 0.463 0.422
-13.3293876 -49.0113646 -50.8908369 0.113 0.165 0.094
-13.3193890 -50.4513681 -49.4108349 0.141 0.192 0.112
-13.2793887 -56.1713651 -48.8008335 0.310 0.372 0.321
-13.2293878 -53.2213636 -47.5908332 0.204 0.247 0.184
-13.2193891 -56.7313619 -48.1008328 0.478 0.478 0.439
-13.2193891 -52.0113595 -48.2308343 0.129 0.176 0.120
-13.1593877 -53.2113649 -52.3708351 0.223 0.314 0.241
-13.0593879 -47.8513613 -52.9408380 0.129 0.180 0.109
-12.9993875 -51.4613651 -48.7808362 0.121 0.172 0.102
-12.9793882 -56.5213636 -48.3108312 0.478 0.482 0.451
-12.9693886 -53.8013652 -51.7908335 0.215 0.306 0.235
-12.9193887 -54.4213653 -51.1608347 0.223 0.314 0.241
-12.8993886 -55.2813634 -50.1908325 0.223 0.314 0.241
-12.8793875 -56.1413616 -48.7708338 0.361 0.407 0.361
-12.8593892 -54.9813621 -50.5608357 0.258 0.341 0.266
-12.8493877 -52.6713617 -48.1908396 0.141 0.184 0.120
-12.8193880 -56.7413643 -46.4108363 0.157 0.200 0.133
-12.8193880 -49.0113646 -51.1208326 0.117 0.169 0.098
-12.7793886 -50.8513637 -49.3808351 0.121 0.172 0.106
-12.7693880 -56.6613600 -46.4208387 0.157 0.200 0.133
-12.7693880 -56.5813631 -48.2108332 0.521 0.517 0.498
-12.7693880 -56.3313626 -46.3208333 0.141 0.176 0.109
-12.7693880 -56.0313612 -48.9408337 0.329 0.384 0.325
-12.7693880 -55.9113659 -46.4308374 0.184 0.219 0.145
-12.7693880 -55.7213649 -49.5708361 0.251 0.341 0.278
-12.7693880 -55.5313639 -49.9508306 0.239 0.329 0.257
-12.7693880 -55.4513671 -46.6508344 0.188 0.239 0.159
-12.7693880 -55.3313643 -50.2108335 0.235 0.318 0.241
-12.7693880 -54.9413636 -50.6408364 0.239 0.329 0.257
-12.7693880 -54.7813624 -47.0408313 0.204 0.247 0.180
-12.7693880 -54.4313639 -51.2208380 0.223 0.314 0.241
-12.7693880 -54.3013625 -47.2808331 0.200 0.247 0.167
-12.7693880 -54.2913638 -51.3808355 0.231 0.321 0.249
-12.7693880 -53.9613664 -51.7508350 0.227 0.318 0.245
-12.7693880 -53.6513589 -47.6408340 0.200 0.243 0.176
-12.7693880 -53.4813665 -52.5108352 0.212 0.302 0.223
-12.7693880 -53.1413667 -53.0708358 0.184 0.266 0.198
-12.7693880 -53.0913658 -47.9308367 0.192 0.235 0.180
-12.7693880 -52.2013642 -48.4608337 0.172 0.215 0.152
-12.7693880 -51.9813597 -48.5708304 0.129 0.172 0.109
-12.7693880 -51.6613610 -48.8008335 0.121 0.172 0.106
-12.7693880 -51.0413684 -49.2408387 0.129 0.172 0.109
-12.7693880 -50.8613624 -49.3808351 0.125 0.176 0.109
-12.7693880 -49.6613644 -50.4108332 0.125 0.169 0.102
-12.7693880 -49.5913662 -50.4608341 0.113 0.165 0.094
-12.7693880 -49.3513644 -50.7008359 0.117 0.161 0.094
-12.7693880 -49.0013659 -51.1508361 0.109 0.161 0.090
-12.7693880 -48.9113629 -51.3108373 0.113 0.165 0.098
-12.7693880 -48.6613624 -51.7608374 0.129 0.180 0.109
-12.7693880 -48.3013652 -52.3708351 0.117 0.169 0.102
-12.7693880 -47.8713624 -52.9508367 0.121 0.165 0.102
-12.7693880 -47.7813631 -53.0608371 0.125 0.169 0.102
-12.7593894 -56.6513650 -48.0408333 0.545 0.533 0.512
-12.7593894 -56.0413674 -46.3808365 0.192 0.212 0.124
-12.7593894 -53.7813604 -52.0408340 0.231 0.314 0.239
-12.7593894 -50.7813655 -49.4408384 0.125 0.176 0.106
-12.7493879 -54.9013577 -46.9908342 0.208 0.239 0.180
-12.7493879 -53.2013625 -52.9808328 0.188 0.270 0.196
-12.7493879 -48.4113656 -52.2008352 0.109 0.161 0.090
-12.7393892 -55.0213605 -50.5708344 0.239 0.329 0.249
-12.7293887 -52.7013615 -48.2408330 0.153 0.196 0.141
-12.7293887 -49.1913594 -50.9308353 0.113 0.157 0.090
-12.6593886 -53.8413636 -47.5908332 0.180 0.223 0.159
-12.6593886 -49.0413643 -51.1708334 0.109 0.161 0.090
-12.6393884 -56.7413643 -47.7408357 0.568 0.553 0.541
-12.6393884 -50.2613634 -49.9908328 0.125 0.176 0.106
-12.6193874 -56.1413616 -48.7408340 0.419 0.439 0.412
-12.5993881 -55.0113656 -47.0008329 0.200 0.235 0.167
-12.5793889 -49.6313646 -50.5608357 0.129 0.180 0.109
-12.4193877 -56.7413643 -47.5208312 0.568 0.549 0.533
-12.3093883 -52.1013625 -48.8308333 0.196 0.247 0.167
-12.2893881 -53.2013625 -48.1908396 0.157 0.200 0.137
-12.2493887 -51.4213592 -49.3808351 0.121 0.165 0.109
-12.1793887 -56.5913618 -47.2408347 0.541 0.525 0.490
-12.1793887 -56.4813614 -46.9408371 0.200 0.239 0.145
-12.1793887 -56.3813634 -48.0908342 0.573 0.553 0.537
-12.1793887 -56.0713634 -46.7708372 0.188 0.247 0.163
-12.1793887 -55.9113659 -49.0408316 0.455 0.463 0.451
-12.1793887 -55.6513630 -49.6108308 0.463 0.478 0.482
-12.1793887 -55.4413609 -50.0108339 0.325 0.380 0.321
-12.1793887 -55.3113632 -47.0508337 0.227 0.262 0.188
-12.1793887 -55.1513620 -50.5708344 0.239 0.321 0.253
-12.1793887 -54.4013642 -51.5308343 0.251 0.333 0.257
-12.1793887 -54.3813594 -51.5508391 0.247 0.329 0.253
-12.1793887 -54.1613623 -47.6808362 0.204 0.251 0.171
-12.1793887 -54.0513620 -51.9308336 0.215 0.306 0.227
-12.1793887 -53.7813604 -52.3508377 0.204 0.294 0.214
-12.1793887 -53.7713617 -47.9008332 0.192 0.243 0.171
-12.1793887 -53.2713570 -48.2208356 0.161 0.212 0.141
-12.1793887 -53.2213636 -53.2608368 0.274 0.364 0.292
-12.1793887 -53.1713627 -48.2808352 0.157 0.200 0.137
-12.1793887 -52.3513630 -48.7708338 0.145 0.196 0.124
-12.1793887 -51.9713648 -49.0508378 0.125 0.172 0.116
-12.1793887 -51.5213609 -49.4108349 0.161 0.204 0.149
-12.1793887 -51.2613654 -49.5408326 0.121 0.165 0.102
-12.1793887 -50.7513620 -49.9508306 0.125 0.176 0.106
-12.1793887 -50.4513681 -50.1808375 0.121 0.172 0.106
-12.1793887 -50.1313619 -50.4108332 0.121 0.172 0.102
-12.1793887 -49.8713627 -50.6208315 0.113 0.165 0.094
-12.1793887 -49.0513593 -51.3508394 0.125 0.176 0.106
-12.1793887 -48.8213599 -51.6608320 0.121 0.172 0.102
-12.1793887 -48.6813635 -51.9108362 0.117 0.169 0.102
-12.1793887 -48.3813621 -52.3508377 0.113 0.165 0.098
-12.1793887 -47.8513613 -52.9908389 0.117 0.169 0.098
-12.1793887 -47.7213636 -53.1508327 0.125 0.176 0.106
-12.1693891 -56.2113598 -48.5008359 0.553 0.541 0.520
-12.1693891 -56.1213642 -48.7008318 0.513 0.510 0.490
-12.1693891 -55.5613600 -49.8208329 0.392 0.443 0.404
-12.1693891 -55.4713644 -46.9808355 0.223 0.258 0.184
-12.1693891 -54.8913628 -50.9808362 0.262 0.353 0.274
-12.1693891 -54.7013618 -47.3808311 0.192 0.235 0.167
-12.1693891 -52.3213632 -48.8008335 0.145 0.196 0.124
-12.1693891 -49.5713614 -50.8708358 0.121 0.172 0.102
-12.1693891 -48.4013595 -52.3308329 0.113 0.165 0.098
-12.1593876 -54.3813594 -47.5608371 0.227 0.262 0.188
-12.0893875 -53.8013652 -52.3708351 0.212 0.306 0.219
-12.0693892 -54.4113666 -47.6008393 0.215 0.262 0.184
-12.0293880 -50.8813635 -49.9708354 0.121 0.172 0.106
-11.9793881 -55.6713641 -47.0108390 0.219 0.270 0.192
-11.9293882 -52.6213646 -48.7908348 0.141 0.192 0.120
-11.8993884 -50.2413586 -50.5608357 0.137 0.192 0.124
-11.7993876 -48.4613627 -52.3608364 0.121 0.172 0.102
-11.7893890 -54.8813641 -51.0308333 0.251 0.345 0.241
-11.7693888 -56.1413616 -48.1108315 0.560 0.541 0.525
-11.7293885 -54.3913655 -51.7508350 0.235 0.329 0.235
-11.6993878 -52.0213582 -49.4008325 0.137 0.188 0.120
-11.6593884 -53.8213626 -48.2408330 0.169 0.219 0.149
-11.6293877 -49.7113615 -51.1608347 0.137 0.180 0.124
-11.5793878 -56.0113601 -48.1608361 0.541 0.521 0.498
-11.5793878 -55.9413619 -47.5608371 0.212 0.266 0.176
-11.5793878 -55.7113662 -49.2908321 0.490 0.474 0.469
-11.5793878 -55.3513616 -50.1308367 0.439 0.431 0.443
-11.5793878 -55.1713593 -47.4808365 0.231 0.286 0.196
-11.5793878 -55.0613627 -50.6408364 0.435 0.435 0.435
-11.5793878 -54.9613610 -50.8308373 0.427 0.451 0.435
-11.5793878 -54.9013577 -47.6208329 0.235 0.282 0.202
-11.5793878 -54.7113605 -51.3208359 0.321 0.407 0.317
-11.5793878 -54.4213653 -51.7808348 0.258 0.357 0.270
-11.5793878 -54.2813651 -51.9408360 0.270 0.357 0.266
-11.5793878 -54.1713648 -48.0708368 0.184 0.235 0.163
-11.5793878 -53.9513640 -52.3908362 0.282 0.372 0.292
-11.5793878 -53.8313650 -48.2808352 0.176 0.223 0.145
-11.5793878 -53.6913648 -52.9108308 0.314 0.404 0.332
-11.5793878 -53.6413603 -53.0508347 0.298 0.388 0.309
-11.5793878 -53.6013655 -48.4208353 0.153 0.204 0.124
-11.5793878 -53.1213619 -48.7308353 0.141 0.192 0.112
-11.5793878 -53.0113652 -48.8108359 0.149 0.200 0.128
-11.5793878 -52.0313643 -49.4808331 0.133 0.184 0.116
-11.5793878 -52.0013608 -49.5108366 0.141 0.192 0.124
-11.5793878 -51.3913594 -49.9908328 0.125 0.172 0.116
-11.5793878 -50.6313592 -50.5908355 0.196 0.247 0.176
-11.5793878 -50.1613617 -50.8708358 0.125 0.169 0.112
-11.5793878 -49.7013628 -51.1908345 0.153 0.196 0.133
-11.5793878 -49.6113636 -51.2508340 0.145 0.188 0.133
-11.5793878 -49.0113646 -51.7708361 0.117 0.161 0.098
-11.5793878 -48.5013612 -52.4608344 0.109 0.161 0.094
-11.5793878 -48.3513623 -52.6008382 0.121 0.172 0.102
-11.5793878 -47.8713624 -53.0708358 0.113 0.165 0.094
-11.5793878 -47.7113649 -53.2508306 0.121 0.172 0.102
-11.5693882 -55.9713654 -48.6008376 0.568 0.549 0.533
-11.5693882 -55.5213615 -49.6608354 0.443 0.443 0.451
-11.5693882 -52.5913611 -49.0908362 0.161 0.212 0.141
-11.5693882 -50.8113615 -50.4708327 0.121 0.169 0.112
-11.5493881 -51.4213592 -49.9808341 0.129 0.176 0.120
-11.5393884 -55.6013659 -49.5108366 0.439 0.443 0.457
-11.5393884 -53.7113622 -48.3808331 0.165 0.208 0.141
-11.5093887 -49.0413643 -51.7908335 0.109 0.153 0.098
-11.4993881 -55.0013669 -47.6308353 0.223 0.270 0.192
-11.4793880 -50.8213602 -50.5608357 0.133 0.180 0.124
-11.4593888 -54.6213649 -47.8508323 0.243 0.286 0.219
-11.4293890 -53.2213636 -48.7808362 0.149 0.200 0.120
-11.3793891 -52.2213653 -49.5308340 0.157 0.208 0.137
-11.3293882 -50.2813645 -51.1608347 0.141 0.192 0.124
-11.2993876 -48.9113629 -52.1408394 0.117 0.161 0.098
-11.2893879 -53.8113639 -52.9408380 0.302 0.400 0.317
-11.1993896 -52.6413620 -49.4208336 0.149 0.200 0.133
-11.1393882 -55.5713624 -49.3708290 0.517 0.498 0.486
-11.1293886 -54.4613637 -48.2108332 0.212 0.262 0.184
-11.1293886 -54.1913621 -48.3908392 0.172 0.223 0.145
-11.1193880 -55.5513613 -48.1908396 0.243 0.298 0.196
-11.0893883 -52.0113595 -49.9908328 0.172 0.231 0.149
-11.0493889 -49.7113615 -51.7508350 0.219 0.247 0.184
-10.9893885 -55.4913618 -49.2208339 0.564 0.553 0.525
-10.9893885 -55.4613657 -49.5308340 0.510 0.494 0.482
-10.9893885 -55.4113612 -48.3208336 0.235 0.294 0.202
-10.9893885 -55.3713590 -48.0908342 0.247 0.306 0.223
-10.9893885 -55.2413613 -50.1908325 0.502 0.494 0.504
-10.9893885 -55.0713614 -50.5908355 0.443 0.443 0.443
-10.9893885 -54.9113601 -48.1108315 0.215 0.266 0.188
-10.9893885 -54.8313633 -50.9908348 0.419 0.427 0.414
-10.9893885 -54.6813607 -48.2308343 0.196 0.247 0.167
-10.9893885 -54.6613671 -51.3308346 0.411 0.419 0.414
-10.9893885 -54.3813594 -51.8508330 0.376 0.396 0.369
-10.9893885 -54.3513633 -48.4308340 0.184 0.235 0.155
-10.9893885 -54.1513637 -52.4408333 0.368 0.415 0.361
-10.9893885 -53.7713617 -53.2608368 0.286 0.404 0.309
-10.9893885 -53.7713617 -48.8408320 0.153 0.204 0.137
-10.9893885 -53.1413667 -49.2908321 0.176 0.227 0.149
-10.9893885 -52.9713631 -49.4208336 0.169 0.227 0.152
-10.9893885 -52.5613651 -49.7108363 0.165 0.215 0.145
-10.9893885 -52.2213653 -49.9708354 0.149 0.200 0.128
-10.9893885 -51.8013611 -50.2308384 0.184 0.231 0.184
-10.9893885 -51.0513633 -50.7408343 0.137 0.188 0.120
-10.9893885 -50.7913642 -50.9708375 0.137 0.184 0.128
-10.9893885 -50.5113639 -51.2408316 0.125 0.172 0.116
-10.9893885 -50.2213612 -51.5108332 0.117 0.165 0.109
-10.9893885 -49.8613641 -51.8108383 0.141 0.165 0.116
-10.9893885 -49.5913662 -51.8808365 0.161 0.184 0.128
-10.9893885 -48.8713644 -52.5108352 0.125 0.172 0.116
-10.9893885 -48.3913608 -52.9208332 0.109 0.157 0.102
-10.9893885 -48.3513623 -52.9508367 0.113 0.165 0.098
-10.9793888 -53.9313667 -52.9408380 0.270 0.368 0.282
-10.9793888 -51.3913594 -50.4608341 0.137 0.184 0.128
-10.9693883 -54.4213653 -51.7708361 0.384 0.388 0.365
-10.9593878 -53.8313650 -48.8108359 0.153 0.204 0.137
-10.8993892 -49.1113625 -52.3608364 0.117 0.161 0.106
-10.8893877 -48.4513640 -52.9508367 0.121 0.169 0.112
-10.8793881 -51.4413640 -50.5608357 0.169 0.215 0.159
-10.8493892 -53.2313623 -49.3808351 0.176 0.235 0.152
-10.7893879 -54.7513627 -48.4508350 0.212 0.262 0.184
-10.7193887 -54.9513623 -48.7908348 0.247 0.294 0.206
-10.7093882 -52.6513644 -49.9708354 0.180 0.231 0.152
-10.6493887 -50.8313589 -51.1808358 0.145 0.204 0.128
-10.6193889 -54.3113612 -48.9108339 0.184 0.235 0.163
-10.6093884 -52.0113595 -50.5808331 0.176 0.231 0.163
-10.5393883 -49.5013632 -52.4908341 0.106 0.149 0.094
-10.5193891 -51.4513627 -51.1708334 0.137 0.204 0.133
-10.5193891 -49.6313646 -52.3508377 0.109 0.153 0.098
-10.5093876 -54.3613620 -51.7308302 0.404 0.431 0.404
-10.4893893 -54.9613610 -50.5508333 0.451 0.435 0.422
-10.4793878 -54.8913628 -49.3808351 0.251 0.314 0.206
-10.4493871 -54.0013649 -53.0008338 0.368 0.423 0.357
-10.4493871 -50.2913631 -51.7708361 0.161 0.212 0.141
-10.4493871 -49.0813628 -52.9408380 0.121 0.153 0.109
-10.4093887 -53.7913628 -49.3908338 0.137 0.192 0.124
-10.3893895 -54.9713597 -49.6808365 0.478 0.486 0.430
-10.3893895 -54.9513623 -50.1208343 0.486 0.470 0.457
-10.3893895 -54.7713637 -50.8508347 0.451 0.435 0.422
-10.3893895 -54.6113625 -51.1908345 0.431 0.427 0.412
-10.3893895 -54.5613617 -49.3208356 0.223 0.274 0.196
-10.3893895 -54.3213598 -51.7408364 0.411 0.439 0.412
-10.3893895 -54.3213598 -49.2608361 0.176 0.227 0.155
-10.3893895 -54.2213619 -52.0108379 0.419 0.459 0.426
-10.3893895 -54.1213602 -52.3808338 0.411 0.459 0.418
-10.3893895 -54.0113635 -52.9508367 0.384 0.431 0.375
-10.3893895 -53.6113642 -49.5608337 0.137 0.188 0.120
-10.3893895 -53.1613640 -49.9308370 0.145 0.196 0.128
-10.3893895 -53.0513600 -50.0208326 0.141 0.192 0.124
-10.3893895 -52.4813607 -50.4808314 0.172 0.231 0.155
-10.3893895 -52.2913672 -50.6608337 0.157 0.215 0.141
-10.3893895 -51.9013628 -50.9808362 0.133 0.180 0.124
-10.3893895 -51.6613610 -51.1608347 0.145 0.212 0.141
-10.3893895 -51.3813645 -51.3708331 0.157 0.208 0.137
-10.3893895 -50.8013666 -51.4808372 0.153 0.196 0.141
-10.3893895 -50.3913648 -51.7608374 0.153 0.204 0.133
-10.3893895 -50.2213612 -51.8908352 0.149 0.200 0.133
-10.3893895 -49.6613644 -52.3808338 0.125 0.172 0.116
-10.3893895 -49.3513644 -52.7408384 0.117 0.157 0.112
-10.3893895 -48.8213599 -53.1608351 0.165 0.208 0.145
-10.3793880 -53.8513586 -49.3908338 0.145 0.200 0.133
-10.3593897 -49.0513593 -53.0708358 0.109 0.153 0.098
-10.2793882 -51.1713624 -51.5808351 0.169 0.219 0.152
-10.2593889 -53.2913618 -49.9708354 0.145 0.188 0.133
-10.2193877 -50.9013608 -51.7508350 0.212 0.278 0.206
-10.2093890 -52.6313633 -50.5708344 0.141 0.192 0.124
-10.1893889 -54.2413630 -51.6508333 0.502 0.498 0.490
-10.1593882 -54.3613620 -51.1508361 0.506 0.494 0.457
-10.0893881 -52.0613641 -51.1708334 0.141 0.192 0.124
-10.0193880 -53.2113649 -50.3308326 0.145 0.192 0.137
-10.0193880 -51.4113605 -51.7608374 0.145 0.196 0.128
-9.9893892 -50.2513647 -52.3508377 0.169 0.223 0.163
-9.9793896 -53.8113639 -49.9708354 0.129 0.176 0.120
-9.9393893 -53.7813604 -51.6908392 0.251 0.310 0.188
-9.9293878 -54.0613644 -51.0208346 0.266 0.341 0.223
-9.9093877 -53.7413619 -51.7808348 0.274 0.325 0.206
-9.8693874 -53.2213636 -50.5608357 0.180 0.247 0.176
-9.8393876 -49.6413596 -52.9508367 0.137 0.184 0.128
-9.7993892 -54.4613637 -50.0208326 0.314 0.384 0.288
-9.7993892 -54.4613637 -49.9508306 0.349 0.400 0.327
-9.7993892 -54.3513633 -49.8808324 0.165 0.219 0.120
-9.7993892 -54.3413647 -50.4508354 0.282 0.345 0.231
-9.7993892 -54.2413630 -50.5708344 0.258 0.321 0.214
-9.7993892 -53.8213626 -52.7708344 0.459 0.498 0.465
-9.7993892 -53.7713617 -52.3708351 0.506 0.506 0.473
-9.7993892 -53.7013635 -50.3608361 0.169 0.227 0.152
-9.7993892 -53.6813624 -52.1308333 0.510 0.502 0.451
-9.7993892 -53.6513589 -51.5608378 0.235 0.290 0.223
-9.7993892 -53.2113649 -50.6708324 0.180 0.235 0.176
-9.7993892 -53.1813614 -50.6908372 0.184 0.239 0.180
-9.7993892 -52.4313636 -51.2008332 0.149 0.208 0.133
-9.7993892 -51.7513603 -51.7708361 0.157 0.208 0.137
-9.7993892 -51.3713658 -52.0308353 0.153 0.204 0.137
-9.7993892 -50.6713651 -52.4608344 0.137 0.184 0.128
-9.7993892 -50.1813665 -52.7108349 0.188 0.262 0.184
-9.7993892 -49.6813618 -52.9508367 0.137 0.184 0.128
-9.7993892 -49.4213626 -53.1908385 0.149 0.196 0.141
-9.7893877 -53.8413636 -51.1708334 0.247 0.298 0.219
-9.7893877 -52.5713600 -51.0908365 0.149 0.200 0.133
-9.7893877 -51.9613661 -51.6108349 0.137 0.180 0.116
-9.7693885 -50.8613624 -52.3708351 0.153 0.204 0.137
-9.6993875 -52.6013598 -51.1908345 0.129 0.180 0.112
-9.6193887 -52.0313643 -51.7608374 0.153 0.208 0.141
-9.5993895 -50.2613634 -52.9508367 0.141 0.196 0.128
-9.4493879 -51.4313653 -52.3608364 0.153 0.204 0.133
-9.4293887 -53.1913601 -51.9008338 0.219 0.278 0.188
-9.3993880 -53.1813614 -52.8908335 0.298 0.364 0.239
-9.3893893 -53.5113588 -53.2808341 0.490 0.494 0.469
-9.3793888 -53.1813614 -52.9908389 0.337 0.388 0.278
-9.7893877 -47.4113598 -24.4508348 0.439 0.506 0.379
-14.0293883 -47.9313619 -14.3508352 0.282 0.411 0.227
-13.9893908 -48.0713621 -14.3408347 0.294 0.419 0.235
-13.9593892 -47.6613604 -14.7708338 0.294 0.400 0.231
-13.9593892 -47.4313609 -14.9708334 0.270 0.380 0.192
-13.9493877 -48.2213646 -14.3108340 0.302 0.400 0.235
-13.8493879 -47.9113609 -14.9108348 0.318 0.404 0.253
-13.8393883 -48.5413671 -14.3308351 0.314 0.411 0.253
-13.6993891 -47.6213656 -15.6208351 0.321 0.435 0.253
-13.6893885 -48.4713651 -14.9608357 0.294 0.404 0.241
-13.6493891 -47.9513668 -15.5008351 0.306 0.404 0.239
-13.6393877 -49.0513593 -14.3708354 0.341 0.431 0.266
-13.5193886 -49.0913615 -14.9108348 0.294 0.392 0.239
-13.4993885 -48.4913625 -15.5208353 0.294 0.392 0.227
-13.4593882 -47.8613637 -16.1308348 0.298 0.407 0.245
-13.4293893 -49.6313646 -14.4108357 0.270 0.372 0.235
-13.3593883 -49.7213677 -14.6708349 0.266 0.368 0.231
-13.3593883 -49.5713614 -14.8708345 0.266 0.353 0.210
-13.3593883 -49.5513640 -14.9008352 0.270 0.357 0.206
-13.3593883 -49.0213633 -15.5008351 0.298 0.384 0.235
-13.3593883 -48.3813621 -16.0208344 0.298 0.384 0.231
-13.3593883 -48.1713638 -16.1708333 0.278 0.392 0.219
-13.3593883 -47.7713607 -16.5608358 0.310 0.407 0.241
-13.3593883 -47.5913621 -16.7408343 0.310 0.407 0.253
-13.3393882 -49.0713641 -15.5108338 0.274 0.368 0.227
-13.3193890 -49.6813618 -14.9108348 0.262 0.364 0.227
-13.2893873 -48.4913625 -16.1308348 0.302 0.388 0.239
-13.2793887 -47.8613637 -16.7108346 0.306 0.411 0.241
-13.1793879 -50.2313599 -14.5708350 0.404 0.459 0.369
-13.1693892 -50.2113663 -14.7108352 0.407 0.463 0.365
-13.1293880 -49.6313646 -15.5808358 0.251 0.353 0.206
-13.1293880 -49.0613617 -16.1108337 0.262 0.364 0.219
-13.0793881 -48.5013612 -16.6908354 0.310 0.419 0.262
-13.0693894 -50.2313599 -14.9808349 0.463 0.533 0.439
-13.0493883 -47.8913635 -17.3208341 0.329 0.443 0.270
-12.9393889 -49.7013628 -16.1208343 0.306 0.368 0.253
-12.9093882 -49.0413643 -16.7008340 0.278 0.372 0.231
-12.8393890 -50.2513647 -15.5308349 0.407 0.470 0.365
-12.8293876 -48.5413671 -17.2908343 0.353 0.447 0.321
-12.8193880 -50.8413650 -14.3108340 0.423 0.486 0.379
-12.7993878 -47.8813685 -17.9208349 0.333 0.443 0.282
-12.7693880 -50.9013608 -14.3108340 0.411 0.474 0.369
-12.7693880 -50.8113615 -14.4908344 0.415 0.478 0.375
-12.7693880 -50.6213605 -14.9208335 0.404 0.463 0.371
-12.7693880 -50.3313653 -15.5308349 0.368 0.419 0.309
-12.7693880 -50.2213612 -15.7408342 0.376 0.435 0.313
-12.7693880 -50.0213616 -16.1208343 0.427 0.486 0.371
-12.7693880 -49.6113636 -16.6008361 0.376 0.435 0.313
-12.7693880 -49.4013652 -16.7308338 0.262 0.364 0.219
-12.7693880 -48.8413610 -17.1908345 0.306 0.400 0.266
-12.7693880 -48.6913659 -17.3208341 0.329 0.423 0.296
-12.7693880 -48.4313630 -17.5108351 0.333 0.435 0.296
-12.7693880 -47.9813628 -17.9008357 0.333 0.443 0.282
-12.7693880 -47.7313623 -18.1308351 0.329 0.443 0.270
-12.7093885 -49.6613644 -16.6908354 0.435 0.502 0.375
-12.6993880 -49.4813621 -16.8608334 0.341 0.427 0.284
-12.6493881 -49.0813628 -17.3008349 0.282 0.388 0.257
-12.6193874 -48.4413616 -17.8808346 0.337 0.431 0.296
-12.5993881 -50.8513637 -14.9008352 0.376 0.439 0.332
-12.5493882 -50.2513647 -16.1208343 0.353 0.415 0.300
-12.5093888 -47.9713641 -18.4808355 0.318 0.407 0.241
-12.4393879 -51.4513627 -14.3208355 0.294 0.353 0.262
-12.3793902 -49.0613617 -17.9008357 0.325 0.419 0.292
-12.3593882 -49.6413596 -17.3008349 0.455 0.517 0.412
-12.3493895 -48.4713651 -18.4908342 0.274 0.384 0.235
-12.3093883 -50.8413650 -15.5108338 0.337 0.400 0.284
-12.2993886 -47.8813685 -19.0608352 0.286 0.392 0.231
-12.2193880 -51.4213592 -14.9108348 0.243 0.290 0.202
-12.1893883 -50.2513647 -16.7108346 0.353 0.415 0.309
-12.1793887 -51.8813580 -14.3408347 0.290 0.368 0.231
-12.1793887 -51.4813624 -14.9108348 0.200 0.258 0.167
-12.1793887 -51.1713624 -15.2908340 0.294 0.357 0.253
-12.1793887 -50.9813651 -15.5208353 0.333 0.396 0.292
-12.1793887 -50.4513681 -16.4208356 0.349 0.411 0.296
-12.1793887 -49.9713607 -17.1308350 0.349 0.423 0.313
-12.1793887 -49.7113615 -17.4808353 0.404 0.463 0.349
-12.1793887 -49.4313613 -17.8408362 0.459 0.521 0.418
-12.1793887 -49.3713617 -17.9308336 0.463 0.525 0.418
-12.1793887 -49.0213633 -18.3208343 0.368 0.455 0.313
-12.1793887 -48.8213599 -18.5908359 0.298 0.384 0.241
-12.1793887 -48.4313630 -18.9708341 0.266 0.388 0.223
-12.1793887 -48.1913611 -19.1308353 0.270 0.380 0.219
-12.1793887 -47.8213653 -19.3708353 0.278 0.384 0.223
-12.1793887 -47.6513617 -14.6208350 0.184 0.235 0.167
-12.1793887 -47.4413633 -15.0008341 0.161 0.215 0.149
-12.1693891 -50.7613607 -15.9308352 0.341 0.415 0.305
-12.1693891 -47.8513613 -14.3108340 0.208 0.243 0.176
-12.1393884 -50.2313599 -16.8108344 0.353 0.415 0.309
-12.1293878 -48.4713651 -19.0908350 0.278 0.372 0.231
-12.1193882 -49.0413643 -18.4708349 0.423 0.498 0.371
-12.0293880 -47.8813685 -19.6808353 0.266 0.376 0.227
-11.9993901 -52.0413630 -14.4008351 0.337 0.404 0.278
-11.9793881 -51.1013642 -15.7408342 0.266 0.329 0.227
-11.9593879 -50.8213602 -16.1608346 0.341 0.415 0.305
-11.9593879 -49.6613644 -17.8808346 0.368 0.443 0.332
-11.8993884 -47.8913635 -20.0008340 0.286 0.380 0.239
-11.8893888 -51.4213592 -15.5608337 0.231 0.294 0.192
-11.8893888 -48.4413616 -19.6808353 0.310 0.376 0.249
-11.8693886 -48.4413616 -14.3708354 0.169 0.223 0.155
-11.8193896 -50.2313599 -17.2908343 0.345 0.419 0.309
-11.8093882 -49.1013601 -19.0608352 0.411 0.478 0.344
-11.7893890 -47.9013622 -20.2708337 0.302 0.400 0.245
-11.7593883 -47.8513613 -14.9708334 0.133 0.180 0.141
-11.7493877 -52.0413630 -14.9008352 0.380 0.459 0.321
-11.6693890 -50.8513637 -16.7308338 0.290 0.345 0.245
-11.6393892 -48.4813638 -20.2708337 0.419 0.486 0.344
-11.6193872 -49.6713631 -18.4908342 0.380 0.455 0.336
-11.5993880 -51.4413640 -16.1008351 0.258 0.333 0.206
-11.5793878 -52.3913614 -14.4608337 0.400 0.467 0.332
-11.5793878 -52.1013625 -15.1108354 0.372 0.451 0.313
-11.5793878 -51.5213609 -16.0108358 0.274 0.357 0.202
-11.5793878 -51.4413640 -16.1108337 0.262 0.337 0.210
-11.5793878 -51.2413643 -16.3908340 0.235 0.310 0.192
-11.5793878 -50.7813655 -16.9708356 0.294 0.349 0.249
-11.5793878 -50.3413603 -17.4908359 0.357 0.431 0.321
-11.5793878 -50.1213633 -17.8608336 0.361 0.435 0.317
-11.5793878 -49.8413630 -18.3108356 0.376 0.451 0.332
-11.5793878 -49.7213677 -18.4908342 0.384 0.459 0.340
-11.5793878 -49.5513640 -18.7808350 0.372 0.435 0.321
-11.5793878 -49.2113642 -19.3208344 0.372 0.431 0.300
-11.5793878 -48.9413626 -19.7508354 0.361 0.427 0.300
-11.5793878 -48.6813635 -14.3908346 0.157 0.208 0.141
-11.5793878 -48.4313630 -14.7208339 0.153 0.204 0.137
-11.5793878 -48.2813641 -20.6608325 0.364 0.451 0.300
-11.5793878 -48.1713638 -15.1308347 0.165 0.208 0.145
-11.5793878 -47.8313640 -20.8008345 0.294 0.396 0.249
-11.5793878 -47.7913618 -15.5708352 0.137 0.169 0.116
-11.5793878 -47.6813652 -20.8508354 0.310 0.419 0.270
-11.5693882 -52.0013608 -15.3108351 0.376 0.455 0.317
-11.5693882 -50.9613603 -16.8208349 0.251 0.306 0.206
-11.5693882 -48.5613644 -20.3408338 0.407 0.486 0.340
-11.5693882 -48.0513610 -20.8608340 0.302 0.396 0.253
-11.5393884 -47.8913635 -15.5408354 0.149 0.192 0.137
-11.4993881 -49.1013601 -19.6608361 0.368 0.435 0.309
-11.4893895 -51.6813621 -15.9408338 0.310 0.364 0.223
-11.4293890 -48.4413616 -14.9708334 0.157 0.204 0.124
-11.4193875 -52.0113595 -15.5008351 0.372 0.439 0.313
-11.4093889 -50.2913631 -17.8708341 0.372 0.443 0.340
-11.4093889 -47.9813628 -21.1808365 0.400 0.459 0.336
-11.3393879 -52.6013598 -14.3908346 0.423 0.490 0.357
-11.3293882 -50.8813635 -17.3308346 0.227 0.302 0.192
-11.3293882 -49.6713631 -19.0708358 0.380 0.455 0.336
-11.3093890 -48.5313609 -20.8808351 0.368 0.435 0.300
-11.2993876 -51.4113605 -16.7408343 0.302 0.380 0.235
-11.2993876 -47.8613637 -21.4408357 0.388 0.498 0.340
-11.1793894 -49.0413643 -14.3208355 0.180 0.231 0.152
-11.1693880 -49.0713641 -20.2508345 0.400 0.463 0.357
-11.1693880 -48.5713631 -15.2608333 0.149 0.208 0.124
-11.1693880 -48.4413616 -15.5008351 0.153 0.212 0.128
-11.1593883 -50.2313599 -18.5108352 0.364 0.419 0.321
-11.1493897 -47.9213633 -16.0908364 0.172 0.227 0.159
-11.0993888 -48.8413610 -20.8208356 0.411 0.467 0.369
-11.0793887 -51.4113605 -17.2908343 0.345 0.411 0.284
-11.0493889 -50.8813635 -17.8708341 0.247 0.333 0.192
-11.0293897 -49.6413596 -19.6908340 0.372 0.447 0.327
-11.0193882 -48.4613627 -21.4608368 0.400 0.463 0.349
-10.9893885 -52.6413620 -14.7308353 0.345 0.341 0.321
-10.9893885 -52.4313636 -14.9908355 0.380 0.368 0.340
-10.9893885 -51.9513637 -15.7108344 0.396 0.427 0.332
-10.9893885 -51.6513623 -16.5608358 0.482 0.517 0.435
-10.9893885 -51.6313650 -16.6908354 0.470 0.506 0.422
-10.9893885 -51.3213612 -17.5508354 0.314 0.400 0.249
-10.9893885 -50.9513617 -17.9308336 0.270 0.357 0.206
-10.9893885 -50.6913587 -18.2708353 0.239 0.318 0.180
-10.9893885 -50.5113639 -18.5008347 0.247 0.310 0.196
-10.9893885 -50.0113629 -19.1808343 0.368 0.419 0.317
-10.9893885 -49.6213660 -19.7808333 0.376 0.451 0.332
-10.9893885 -49.0913615 -20.5708332 0.439 0.494 0.396
-10.9893885 -48.9313677 -20.8708365 0.427 0.490 0.387
-10.9893885 -48.8713644 -15.0508340 0.180 0.239 0.149
-10.9893885 -48.5013612 -15.7608334 0.157 0.219 0.116
-10.9893885 -48.4713651 -21.5008352 0.400 0.463 0.349
-10.9893885 -48.1313579 -21.8308344 0.455 0.517 0.412
-10.9893885 -48.1013656 -16.2408352 0.169 0.223 0.155
-10.9893885 -47.8113629 -16.6208334 0.169 0.227 0.152
-10.9893885 -47.5913621 -16.9208348 0.157 0.208 0.137
-10.9893885 -47.4613607 -22.0508352 0.368 0.486 0.344
-10.9793888 -51.5113622 -17.3108354 0.384 0.435 0.317
-10.9793888 -50.1513630 -18.9708341 0.345 0.400 0.296
-10.9793888 -49.1213612 -14.5408344 0.204 0.266 0.163
-10.9793888 -48.9913598 -20.7708366 0.439 0.494 0.396
-10.9793888 -48.9613637 -14.8508344 0.196 0.251 0.152
-10.9793888 -48.3713634 -15.9208346 0.157 0.219 0.116
-10.9793888 -47.7713607 -21.9908357 0.400 0.510 0.361
-10.9693883 -52.5713600 -14.7708338 0.345 0.357 0.321
-10.9693883 -52.0213582 -15.5408354 0.407 0.407 0.305
-10.9593878 -49.6913604 -19.7408330 0.364 0.439 0.327
-10.9293889 -47.8613637 -22.0508352 0.423 0.517 0.375
-10.9093878 -47.8813685 -16.7308338 0.161 0.219 0.145
-10.8893877 -52.0013608 -15.4008353 0.474 0.455 0.379
-10.8693885 -49.0613617 -20.8508354 0.435 0.498 0.396
-10.8493892 -51.9713648 -14.3308351 0.427 0.419 0.461
-10.8393878 -50.2913631 -19.0708358 0.258 0.333 0.206
-10.8293872 -48.4513640 -16.1208343 0.172 0.235 0.133
-10.8093880 -49.0913615 -14.9208335 0.208 0.266 0.176
-10.7693896 -51.3313636 -14.3408347 0.553 0.568 0.572
-10.7693896 -50.8913621 -18.4708349 0.270 0.357 0.214
-10.6993895 -48.4413616 -22.0508352 0.419 0.474 0.371
-10.6693888 -51.4113605 -17.9008357 0.364 0.431 0.305
-10.6593873 -51.3913594 -14.9208335 0.564 0.541 0.486
-10.6593873 -47.8713624 -17.3708349 0.157 0.200 0.145
-10.6493887 -49.6413596 -20.3008354 0.364 0.427 0.321
-10.5893891 -50.7913642 -14.3708354 0.545 0.541 0.469
-10.5793877 -49.0813628 -15.5008351 0.204 0.262 0.171
-10.5793877 -47.8913635 -22.6508360 0.451 0.506 0.404
-10.5493879 -51.4013618 -15.9308352 0.537 0.541 0.516
-10.5493879 -51.3813645 -16.2108354 0.525 0.521 0.500
-10.5393883 -48.4613627 -16.7408343 0.176 0.235 0.145
-10.4793878 -50.3113642 -19.6708348 0.243 0.329 0.176
-10.4793878 -49.0813628 -21.4708354 0.404 0.451 0.357
-10.4693891 -50.7913642 -14.9008352 0.525 0.513 0.455
-10.4093887 -50.8213602 -19.1508345 0.278 0.361 0.198
-10.4093887 -49.7113615 -14.4208344 0.298 0.380 0.257
-10.4093887 -47.8813685 -17.8708341 0.180 0.231 0.152
-10.3993881 -48.3713634 -17.2108337 0.196 0.251 0.152
-10.3893895 -51.5213609 -17.6608358 0.384 0.415 0.321
-10.3893895 -51.5113622 -18.0008356 0.376 0.431 0.327
-10.3893895 -51.4713638 -17.0408338 0.513 0.494 0.477
-10.3893895 -51.4013618 -18.3708351 0.368 0.431 0.317
-10.3893895 -51.3413623 -16.6108347 0.533 0.521 0.500
-10.3893895 -51.2313619 -18.6408348 0.372 0.439 0.305
-10.3893895 -51.2113608 -15.8708356 0.580 0.584 0.559
-10.3893895 -50.9413593 -15.4808341 0.513 0.556 0.490
-10.3893895 -50.7413633 -19.2808341 0.266 0.349 0.188
-10.3893895 -50.6413653 -15.0208352 0.521 0.510 0.451
-10.3893895 -50.5413637 -14.8508344 0.510 0.478 0.426
-10.3893895 -50.4213646 -19.6808353 0.247 0.325 0.180
-10.3893895 -50.1713604 -14.2908357 0.478 0.455 0.400
-10.3893895 -50.1313619 -20.0508367 0.251 0.333 0.171
-10.3893895 -49.8413630 -20.4208363 0.310 0.384 0.257
-10.3893895 -49.7813597 -14.3608339 0.353 0.455 0.317
-10.3893895 -49.5313630 -20.8708365 0.349 0.411 0.305
-10.3893895 -49.4113639 -15.0608346 0.223 0.294 0.192
-10.3893895 -49.2613651 -15.5008351 0.215 0.294 0.196
-10.3893895 -48.9213616 -16.2608363 0.196 0.247 0.167
-10.3893895 -48.8313623 -22.0908355 0.447 0.502 0.404
-10.3893895 -48.6013629 -16.7908352 0.180 0.258 0.159
-10.3893895 -48.3313613 -17.3008349 0.188 0.243 0.145
-10.3893895 -48.1113642 -22.8708349 0.415 0.470 0.371
-10.3893895 -47.9213633 -17.8708341 0.176 0.227 0.149
