37.3874269 -70.5687404 -353.2258272 0.733 0.745 0.717
37.3874269 -70.2287480 -351.7358005 0.659 0.690 0.630
37.3974256 -89.3087462 -352.0558178 0.741 0.741 0.710
37.4074280 -75.5687431 -354.0858030 0.184 0.282 0.129
37.4074280 -72.4987462 -352.3458242 0.192 0.298 0.129
37.4174267 -85.3187516 -353.4657955 0.180 0.290 0.141
37.4274291 -85.4687393 -353.3258140 0.188 0.290 0.145
37.4274291 -74.0287453 -353.1357944 0.169 0.270 0.125
37.4374278 -89.3987417 -352.6258171 0.753 0.757 0.725
37.5074260 -89.3087462 -355.5057943 0.486 0.576 0.462
37.5174284 -73.6287460 -352.9157937 0.172 0.266 0.125
37.5174284 -71.9287395 -355.7057679 0.580 0.608 0.544
37.6474299 -82.3987499 -355.3858101 0.192 0.286 0.145
37.7374291 -87.9887491 -351.5458107 0.306 0.451 0.250
37.8874280 -78.9587498 -355.8958173 0.290 0.384 0.242
37.9174277 -72.0287487 -355.6258082 0.600 0.612 0.568
37.9274301 -83.9887485 -354.0157974 0.212 0.321 0.172
37.9674286 -76.0187432 -354.2658091 0.169 0.270 0.117
38.1174274 -81.3287422 -355.6058109 0.169 0.251 0.121
38.2174253 -78.6887407 -355.5757701 0.208 0.306 0.152
38.2474288 -89.3187374 -353.7458181 0.467 0.537 0.443
38.3174270 -85.2987468 -352.6858091 0.196 0.290 0.156
38.6674255 -89.3387347 -351.9258201 0.753 0.749 0.729
38.6674255 -88.3287415 -350.6157994 0.419 0.498 0.392
38.6674255 -83.3287463 -354.1058004 0.223 0.318 0.184
38.6674255 -77.0787448 -354.6258211 0.149 0.243 0.102
38.6674255 -70.5187470 -351.4858484 0.212 0.294 0.172
38.6774279 -88.1887451 -356.3058078 0.502 0.502 0.501
38.6774279 -80.2087486 -355.8658063 0.290 0.392 0.246
38.6774279 -75.4887462 -353.7358046 0.176 0.270 0.129
38.6774279 -73.8987401 -352.8058231 0.157 0.243 0.102
38.6774279 -72.1487477 -355.3557992 0.627 0.639 0.595
38.6874266 -89.3087462 -351.7758250 0.768 0.765 0.745
38.6874266 -81.1487511 -355.2657962 0.157 0.251 0.125
38.6874266 -72.1787438 -352.0658016 0.184 0.270 0.129
38.6874266 -71.5387389 -351.8757820 0.184 0.270 0.129
38.6874266 -71.4887455 -354.5558155 0.655 0.666 0.623
38.6974290 -85.3487477 -352.5258303 0.208 0.310 0.172
38.7074277 -79.3587416 -355.7658195 0.329 0.427 0.274
38.7074277 -78.9987519 -355.5358052 0.215 0.314 0.160
38.7074277 -78.5587430 -355.2558422 0.208 0.306 0.152
38.7074277 -70.7787499 -353.3457816 0.705 0.709 0.686
38.7174301 -84.7187415 -352.9558182 0.188 0.290 0.152
38.7174301 -70.3487471 -352.7657986 0.741 0.741 0.710
38.7374274 -81.7187428 -354.7858000 0.184 0.274 0.160
38.7474298 -88.9287516 -355.0657928 0.439 0.513 0.439
38.7474298 -86.7987424 -351.6557813 0.306 0.435 0.266
38.7574285 -70.8087459 -351.5757918 0.200 0.282 0.152
38.7874283 -84.5687464 -353.0557752 0.208 0.310 0.172
38.7874283 -76.0487467 -354.0258110 0.157 0.258 0.113
38.7974270 -89.2787501 -353.3557653 0.573 0.627 0.560
38.7974270 -70.5487430 -353.0158103 0.718 0.722 0.698
38.9274284 -82.5787410 -354.2158306 0.243 0.333 0.223
39.0074290 -89.0887454 -353.9558053 0.529 0.612 0.537
39.0174277 -74.5887458 -353.0958295 0.157 0.258 0.121
39.6174267 -86.6187513 -351.4858484 0.306 0.427 0.266
39.6474302 -69.3187416 -351.1458039 0.556 0.600 0.537
39.8074314 -77.4287507 -354.3057740 0.192 0.286 0.152
40.0074273 -89.2587453 -352.4357975 0.560 0.556 0.537
40.0074273 -88.9787450 -353.4857929 0.427 0.411 0.400
40.0074273 -81.5087408 -354.2258143 0.204 0.294 0.180
40.0074273 -78.5187483 -354.6057642 0.212 0.314 0.168
40.0074273 -70.4887435 -351.2957990 0.172 0.274 0.137
40.0174297 -89.2687440 -351.6458273 0.698 0.694 0.674
40.0174297 -88.4487480 -354.8758030 0.502 0.502 0.501
40.0174297 -83.2887515 -353.4657955 0.243 0.337 0.196
40.0174297 -72.4487454 -351.8358171 0.161 0.255 0.113
40.0174297 -71.7887431 -354.1958332 0.686 0.690 0.658
40.0174297 -70.0287446 -352.2258103 0.682 0.682 0.674
40.0174297 -69.2787468 -351.1958122 0.588 0.631 0.568
40.0274284 -86.2287432 -351.5757918 0.204 0.321 0.172
40.0274284 -79.3287531 -354.9558520 0.302 0.404 0.258
40.0274284 -75.3887445 -353.2358110 0.157 0.251 0.117
40.0274284 -74.8587474 -352.9757857 0.149 0.243 0.109
40.0274284 -73.8087445 -352.4458110 0.169 0.251 0.129
40.0374271 -76.5687451 -353.8558483 0.180 0.274 0.141
40.0474258 -87.1287435 -351.1958122 0.325 0.435 0.278
40.0474258 -84.9587396 -352.5058031 0.196 0.290 0.156
40.0574319 -73.0587468 -355.6758165 0.682 0.686 0.654
40.0574319 -71.4287460 -351.5157998 0.165 0.251 0.109
40.0674269 -77.8787434 -354.3257713 0.153 0.247 0.113
13.3574279 -79.6487480 -328.0258179 0.286 0.439 0.223
13.3574279 -79.3587416 -324.9958158 0.321 0.498 0.242
13.3574279 -79.2587399 -327.4258077 0.302 0.459 0.211
13.3574279 -78.1687498 -325.3657818 0.329 0.494 0.246
13.3574279 -76.5887424 -319.9958205 0.192 0.380 0.051
13.3574279 -76.3387457 -314.9258196 0.294 0.467 0.156
13.3674284 -79.7287449 -328.1357884 0.278 0.431 0.215
13.3674284 -76.3387457 -316.5757954 0.251 0.447 0.113
13.3674284 -76.1787519 -318.1758225 0.353 0.521 0.242
13.3774281 -75.8687407 -317.0357943 0.306 0.474 0.196
13.4374285 -76.2287453 -311.4258051 0.223 0.376 0.129
13.4474291 -80.1187456 -326.1258006 0.294 0.470 0.207
13.4574277 -75.7787451 -311.4258051 0.368 0.517 0.285
14.0674273 -81.4587474 -327.6058435 0.415 0.564 0.372
14.1174281 -78.7187442 -323.5858083 0.306 0.482 0.219
14.3174287 -82.1487457 -328.1558156 0.361 0.510 0.317
14.3774282 -75.6587461 -310.3157878 0.306 0.482 0.211
14.5574287 -76.1087462 -310.3258014 0.266 0.435 0.152
14.6674290 -77.1687478 -320.3758299 0.302 0.467 0.219
14.6674290 -76.7387450 -319.1758096 0.278 0.470 0.160
14.6674290 -76.1487409 -316.2358105 0.266 0.451 0.137
14.6674290 -76.1087462 -317.6957965 0.298 0.467 0.196
14.6674290 -76.0987476 -315.3457940 0.290 0.459 0.145
14.6674290 -76.0687515 -313.9957786 0.290 0.463 0.152
14.6674290 -75.9687498 -316.9758022 0.286 0.455 0.176
14.6674290 -75.4687414 -314.7758245 0.282 0.459 0.196
14.6774286 -81.1487511 -326.6958296 0.388 0.545 0.337
14.6774286 -79.6987489 -324.7457743 0.306 0.486 0.231
14.6874283 -76.1187449 -310.5458021 0.270 0.455 0.137
14.6874283 -76.1087462 -312.0557964 0.294 0.459 0.160
14.6874283 -76.0187432 -310.1258278 0.270 0.423 0.168
14.6874283 -75.3187463 -313.5258257 0.262 0.439 0.184
14.6974288 -82.0887461 -327.6258111 0.337 0.486 0.285
14.6974288 -79.0387392 -325.8458078 0.290 0.451 0.223
14.6974288 -78.6187425 -323.0858147 0.306 0.486 0.203
14.6974288 -77.9687390 -321.8658268 0.325 0.510 0.242
14.6974288 -75.2187446 -312.0357990 0.294 0.470 0.207
14.7374282 -80.4187506 -325.8557618 0.325 0.478 0.262
14.7374282 -79.8287466 -326.9858062 0.310 0.463 0.246
14.7474287 -78.0287459 -323.7957954 0.286 0.443 0.207
14.7574283 -78.6287487 -325.0657916 0.274 0.431 0.196
14.7774285 -75.5687431 -310.0658059 0.298 0.467 0.196
14.7774285 -75.2687454 -311.1058176 0.294 0.463 0.192
14.8174288 -77.4487481 -320.7458258 0.310 0.498 0.199
14.8974294 -75.9887472 -317.0458078 0.294 0.459 0.199
14.9974292 -78.9487436 -323.3058155 0.306 0.482 0.211
15.0974290 -77.2187486 -321.0458159 0.310 0.470 0.235
15.2474279 -75.9787410 -315.1957989 0.243 0.423 0.129
15.2674280 -80.1387429 -324.9758184 0.290 0.486 0.207
15.7774277 -75.2887428 -308.9558184 0.329 0.490 0.231
15.8274285 -81.5087408 -326.3058066 0.376 0.537 0.317
15.8974286 -77.3487464 -319.5357919 0.321 0.510 0.219
15.9274284 -78.6687434 -322.1458197 0.286 0.470 0.188
16.0074271 -81.1487511 -325.7057667 0.325 0.482 0.274
16.0074271 -80.9287429 -326.9858062 0.357 0.502 0.297
16.0074271 -79.8387453 -323.9358068 0.290 0.474 0.192
16.0074271 -79.3387443 -325.1357973 0.310 0.470 0.250
16.0074271 -78.0587494 -320.8258152 0.255 0.439 0.164
16.0074271 -77.4387419 -319.6657896 0.294 0.482 0.192
16.0074271 -77.1087483 -318.8157976 0.306 0.486 0.192
16.0074271 -76.4187425 -316.9457912 0.282 0.474 0.164
16.0074271 -75.9087428 -312.8758073 0.278 0.463 0.149
16.0074271 -75.8587494 -309.4357848 0.274 0.443 0.160
16.0074271 -75.1287490 -308.8257909 0.290 0.447 0.199
16.0174295 -80.0387487 -324.2557943 0.286 0.463 0.192
16.0174295 -79.5887485 -323.6657977 0.270 0.455 0.172
16.0174295 -78.6287487 -321.9557703 0.294 0.478 0.196
16.0174295 -75.9287402 -311.1558259 0.286 0.459 0.149
16.0174295 -75.4287392 -314.2058253 0.215 0.392 0.137
16.0274301 -82.2187439 -327.0958066 0.404 0.549 0.349
16.0274301 -78.7787512 -322.3057985 0.318 0.502 0.219
16.0274301 -77.9887438 -322.7458298 0.298 0.455 0.219
16.0274301 -77.2687420 -320.1758265 0.286 0.463 0.207
16.0274301 -75.5287483 -314.8458302 0.306 0.482 0.227
16.0374288 -82.6087520 -327.9658258 0.467 0.545 0.408
16.0374288 -81.5387443 -326.1458278 0.392 0.549 0.341
16.0474274 -77.2487521 -321.3357925 0.329 0.494 0.246
16.0574280 -76.6287446 -317.4858093 0.255 0.435 0.141
16.0574280 -75.7887512 -315.6758249 0.337 0.513 0.258
16.0774291 -82.6887414 -327.8657794 0.467 0.545 0.408
16.1174294 -78.4787461 -321.4358091 0.286 0.470 0.196
16.1274280 -82.7287436 -327.4558485 0.384 0.529 0.328
16.1274280 -78.5987452 -323.7058520 0.294 0.447 0.223
16.2974279 -76.0387480 -315.4958189 0.251 0.435 0.129
16.5774282 -75.0087425 -307.5558245 0.353 0.510 0.262
16.8974288 -79.7687471 -324.7758150 0.282 0.427 0.223
17.0074273 -74.6587440 -307.9457879 0.274 0.431 0.188
17.0874298 -74.6487528 -307.3958158 0.321 0.478 0.231
17.1474293 -77.3387477 -318.1257844 0.298 0.463 0.211
17.1474293 -74.6087506 -309.3958199 0.290 0.467 0.211
17.2374286 -78.7387490 -320.7458258 0.282 0.467 0.192
17.2774289 -80.0287500 -323.5758245 0.290 0.459 0.180
17.2874276 -81.3987404 -324.9458075 0.364 0.510 0.305
17.3374265 -78.5687491 -322.5558102 0.310 0.463 0.239
17.3374265 -78.4687474 -320.1158047 0.298 0.486 0.196
17.3374265 -75.7487416 -311.6158247 0.247 0.431 0.117
17.3474289 -80.6587413 -325.3557980 0.333 0.470 0.258
17.3474289 -79.0287480 -321.2658167 0.321 0.506 0.239
17.3474289 -78.0487433 -319.3258047 0.302 0.494 0.184
17.3474289 -77.0687386 -317.4358010 0.274 0.451 0.180
17.3474289 -75.2387494 -307.6058030 0.251 0.431 0.145
17.3474289 -75.1887411 -312.6858175 0.325 0.482 0.246
17.3474289 -74.5787397 -308.8758290 0.329 0.506 0.250
17.3574276 -81.5687478 -326.0658085 0.353 0.482 0.266
17.3574276 -79.8887387 -324.4557679 0.321 0.455 0.254
17.3574276 -75.4387453 -308.6057901 0.278 0.435 0.156
17.3674300 -80.9587464 -324.5657980 0.380 0.537 0.333
17.3674300 -77.4587393 -318.1758225 0.325 0.486 0.219
17.3674300 -77.3287416 -320.0758100 0.282 0.455 0.207
17.3674300 -76.8387467 -316.9758022 0.286 0.451 0.192
17.3674300 -74.5687410 -306.6858351 0.302 0.459 0.211
17.3874274 -79.1087449 -323.3357966 0.274 0.427 0.203
17.3874274 -77.7887404 -321.1458027 0.286 0.443 0.207
17.3874274 -75.9687498 -314.1458035 0.302 0.486 0.180
17.3874274 -74.6987462 -310.2158010 0.247 0.411 0.164
17.3974279 -81.4887434 -324.9658346 0.364 0.517 0.309
17.4174272 -74.8787448 -306.1658144 0.388 0.506 0.293
17.4374282 -74.5687410 -306.2658012 0.278 0.455 0.192
17.4374282 -74.5387524 -309.1758192 0.262 0.439 0.184
17.4474288 -76.0187432 -314.6458268 0.286 0.474 0.176
17.4474288 -75.9987459 -314.7358000 0.278 0.455 0.192
17.4574293 -78.8587481 -320.6957877 0.302 0.486 0.203
17.4874291 -80.0587460 -323.4358132 0.314 0.494 0.211
17.7274290 -76.0087445 -314.3057823 0.262 0.447 0.133
17.7674275 -74.7787431 -305.8558106 0.380 0.498 0.285
18.0874299 -78.6987469 -319.6657896 0.306 0.498 0.188
18.2974283 -74.3787438 -304.9357831 0.376 0.502 0.305
18.4974298 -80.0687373 -322.1057653 0.337 0.494 0.258
18.6474286 -77.3287416 -318.7358081 0.286 0.439 0.215
18.6674278 -80.0187439 -321.8458295 0.349 0.502 0.254
18.6674278 -79.7087401 -321.3357925 0.361 0.521 0.254
18.6674278 -79.2587399 -320.5358088 0.337 0.517 0.235
18.6674278 -79.0787414 -320.1358020 0.314 0.498 0.215
18.6674278 -78.0887455 -317.8358078 0.290 0.474 0.192
18.6674278 -77.3187503 -318.5358047 0.290 0.451 0.215
18.6674278 -77.3187503 -318.0158138 0.282 0.443 0.207
18.6674278 -76.2487501 -314.9158061 0.286 0.463 0.192
18.6674278 -75.2487481 -309.3457818 0.262 0.443 0.160
18.6674278 -74.4287446 -305.4358363 0.290 0.455 0.172
18.6774284 -78.8787454 -319.6057975 0.286 0.467 0.180
18.6774284 -78.5687491 -321.0458159 0.270 0.423 0.215
18.6774284 -77.0387501 -316.6358173 0.396 0.502 0.325
18.6774284 -75.8087486 -314.0858114 0.286 0.439 0.215
18.6774284 -75.0387385 -311.4058375 0.274 0.427 0.203
18.6774284 -74.6187419 -306.5358400 0.282 0.451 0.168
18.6874270 -78.5587430 -318.7558055 0.310 0.490 0.196
18.6874270 -76.0587454 -313.7857914 0.247 0.439 0.121
18.6874270 -75.1487464 -311.7558062 0.286 0.435 0.211
18.6874270 -74.4087473 -308.9258075 0.243 0.415 0.176
18.6974294 -74.2287412 -304.5358062 0.396 0.533 0.321
18.7074300 -74.7687444 -307.7858388 0.255 0.427 0.133
18.7274292 -80.6487426 -323.1257796 0.510 0.600 0.435
18.7274292 -75.9887472 -314.4558072 0.306 0.459 0.235
18.7374279 -74.5487437 -309.5857799 0.278 0.435 0.199
18.7574290 -74.6987462 -307.4158132 0.278 0.451 0.156
18.7874287 -77.9887438 -319.8257983 0.278 0.439 0.211
18.8174285 -79.8387453 -322.3658204 0.345 0.459 0.278
18.8674275 -77.4187446 -316.8258071 0.302 0.467 0.215
19.2574300 -73.8087445 -303.6258221 0.353 0.506 0.297
19.4674283 -78.8087472 -318.3258176 0.364 0.502 0.282
19.5874292 -78.8587481 -319.5958138 0.404 0.521 0.325
20.0074296 -77.4787441 -316.9758022 0.337 0.467 0.258
20.0074296 -75.3787458 -311.5957975 0.270 0.431 0.196
20.0074296 -74.5687410 -309.4457984 0.302 0.451 0.227
20.0074296 -73.8587528 -303.8758337 0.262 0.451 0.160
20.0074296 -73.8287419 -306.0858250 0.247 0.415 0.137
20.0174283 -77.9487491 -317.4258173 0.423 0.529 0.369
20.0174283 -77.3387477 -315.6158030 0.255 0.423 0.145
20.0174283 -75.7787451 -313.6258125 0.298 0.447 0.223
20.0174283 -75.0387385 -309.4658256 0.278 0.455 0.184
20.0174283 -74.4087473 -308.8658154 0.306 0.463 0.219
20.0274270 -77.1987438 -316.5858090 0.361 0.490 0.266
20.0274270 -74.8087466 -308.9658022 0.258 0.435 0.164
20.0274270 -74.1787404 -307.0557714 0.258 0.439 0.152
20.0374294 -75.6287426 -312.7157986 0.274 0.427 0.203
20.0474281 -77.1287456 -315.2758181 0.282 0.463 0.168
20.0474281 -76.5287504 -313.9458001 0.294 0.474 0.188
20.0474281 -73.4987482 -302.8858006 0.314 0.455 0.203
20.1274287 -76.0187432 -312.9658103 0.282 0.470 0.180
20.1974288 -73.5687464 -302.2958040 0.302 0.443 0.192
20.4074290 -73.3287409 -302.7457893 0.337 0.490 0.235
20.5274299 -73.2687488 -302.3258150 0.302 0.443 0.192
20.6174273 -73.3687431 -303.7458062 0.290 0.459 0.180
20.7274277 -73.3287409 -303.6758006 0.274 0.443 0.164
21.1974289 -73.1187463 -300.6958067 0.278 0.423 0.152
21.2274287 -76.0287419 -311.6658032 0.290 0.447 0.211
21.3174298 -73.3187422 -305.0357997 0.321 0.490 0.219
21.3374272 -76.7787471 -313.6858046 0.341 0.459 0.254
21.3374272 -76.3187483 -312.1758103 0.310 0.459 0.219
21.3374272 -74.7987479 -309.9058270 0.270 0.431 0.211
21.3374272 -74.4187459 -308.9258075 0.314 0.451 0.231
21.3374272 -73.4987482 -305.9657812 0.286 0.455 0.184
21.3374272 -73.3787492 -302.6458025 0.274 0.443 0.164
21.3374272 -73.2887462 -304.7057986 0.258 0.427 0.149
21.3374272 -73.1287450 -300.6258011 0.302 0.443 0.199
21.3374272 -73.1087402 -303.3357859 0.274 0.443 0.164
21.3474296 -75.3187463 -311.0058010 0.294 0.447 0.231
21.3474296 -73.4287426 -303.7557900 0.286 0.447 0.172
21.3474296 -72.9987398 -302.0657897 0.372 0.541 0.262
21.3674270 -75.7687464 -312.0357990 0.341 0.486 0.285
21.3774275 -74.6287480 -309.4858229 0.318 0.474 0.231
21.3774275 -73.7687424 -306.5657914 0.329 0.498 0.219
21.3874280 -76.0287419 -311.4558160 0.294 0.435 0.184
21.3974286 -73.3187422 -305.1458001 0.310 0.478 0.207
21.4174297 -74.7087374 -308.6358011 0.278 0.447 0.176
21.9274275 -75.6187439 -310.6658161 0.368 0.521 0.297
22.6674285 -73.7387463 -306.5058291 0.306 0.459 0.196
22.6674285 -73.0187446 -304.8358262 0.298 0.459 0.184
22.6774290 -73.4087452 -305.6057990 0.345 0.506 0.231
22.6774290 -72.8787482 -303.0957878 0.274 0.431 0.156
22.6974301 -73.1187463 -305.3157926 0.290 0.451 0.176
22.7074306 -72.5387409 -301.7058074 0.282 0.463 0.168
22.7974299 -72.3787472 -300.4958332 0.266 0.447 0.164
21.6674265 -72.9187503 -299.6557951 0.302 0.478 0.207
22.6274282 -72.5887418 -298.2058227 0.368 0.478 0.285
22.6674285 -72.4887475 -298.5658050 0.318 0.498 0.203
22.7174275 -72.5187436 -298.0957925 0.353 0.513 0.215
23.7074271 -71.9987378 -297.5258231 0.357 0.529 0.219
23.7074271 -71.9487444 -299.7157872 0.302 0.510 0.196
23.7374287 -71.9687417 -296.9057858 0.388 0.549 0.250
23.7574298 -72.2287446 -297.9058027 0.364 0.478 0.250
23.8074288 -71.9887465 -298.6758053 0.333 0.502 0.219
23.8474291 -72.0087439 -296.5058386 0.404 0.541 0.274
24.0074266 -71.7887431 -295.9357798 0.407 0.506 0.278
24.0174290 -71.8787462 -300.4257977 0.353 0.510 0.235
24.0274295 -72.1187443 -297.9358137 0.361 0.474 0.262
24.0274295 -71.8387440 -298.9557981 0.333 0.494 0.227
24.0274295 -71.8287528 -298.1657982 0.353 0.510 0.235
24.0374282 -72.0587447 -296.8358099 0.368 0.494 0.246
24.1674278 -71.6887414 -295.6058085 0.415 0.510 0.282
24.6574283 -71.4387447 -294.2357957 0.560 0.600 0.462
25.3474265 -71.0587427 -295.4958081 0.380 0.506 0.250
25.3474265 -70.8887428 -293.6958075 0.498 0.600 0.361
25.6574303 -70.6887469 -292.9758132 0.470 0.580 0.353
25.6874282 -70.5887452 -293.0858135 0.474 0.573 0.345
25.7674288 -70.5987439 -292.6357985 0.467 0.576 0.349
26.0174274 -70.3887492 -291.6257977 0.411 0.494 0.262
57.4274287 -77.0287439 -440.4157996 0.502 0.502 0.501
57.4274287 -75.9987459 -440.4057860 0.502 0.502 0.501
57.4574284 -77.5487423 -440.3958023 0.502 0.502 0.501
57.9274260 -74.5287463 -440.4858053 0.502 0.502 0.501
57.9774268 -76.5287504 -440.8357739 0.502 0.502 0.501
58.2274273 -78.6787495 -440.4757917 0.502 0.502 0.501
58.2274273 -76.8387467 -441.0258234 0.502 0.502 0.501
58.2574271 -75.4787475 -441.0158098 0.502 0.502 0.501
58.3474301 -77.4287507 -441.0158098 0.502 0.502 0.501
58.4474280 -73.1987432 -440.4658079 0.502 0.502 0.501
58.6374290 -74.5587498 -441.1257803 0.502 0.502 0.501
58.6674325 -78.6787495 -440.7657981 0.502 0.502 0.501
58.6674325 -74.4387433 -441.1158264 0.502 0.502 0.501
58.6674325 -73.5387504 -440.8158064 0.502 0.502 0.501
58.6774275 -77.6087493 -441.2158132 0.502 0.502 0.501
58.6774275 -76.3687417 -441.3458109 0.447 0.564 0.455
58.6874261 -75.7487416 -441.2658215 0.482 0.592 0.494
58.7174259 -78.2287419 -440.8858120 0.463 0.596 0.458
58.7374307 -72.8887469 -440.4858053 0.502 0.502 0.501
59.2174307 -73.0087459 -441.0158098 0.349 0.423 0.313
59.2574254 -78.7187442 -441.1357939 0.502 0.502 0.501
59.9774271 -76.1887431 -442.4358010 0.502 0.502 0.501
60.0074269 -76.0887414 -442.3757792 0.486 0.568 0.501
60.0074269 -73.0687380 -441.8057799 0.498 0.506 0.486
60.0374267 -75.3787458 -442.4058199 0.502 0.502 0.501
60.0674301 -74.2787495 -441.9357777 0.396 0.529 0.423
60.0774325 -72.7087483 -440.6857789 0.396 0.513 0.412
60.0874275 -75.8487508 -442.3258305 0.474 0.513 0.482
60.1774268 -74.1487443 -442.3458278 0.502 0.502 0.501
60.7874282 -72.7687478 -442.3658252 0.329 0.380 0.301
61.1074306 -71.9787478 -441.4158463 0.298 0.415 0.266
61.3274314 -75.5287483 -443.6857998 0.506 0.502 0.494
61.3374300 -74.3587390 -443.5958266 0.502 0.502 0.501
61.3374300 -73.3187422 -443.1957901 0.318 0.415 0.262
61.3374300 -72.4487454 -441.9557750 0.310 0.439 0.325
61.3474287 -74.9987513 -443.6857998 0.474 0.584 0.494
61.3674298 -74.8487487 -443.6258078 0.486 0.616 0.509
61.4074282 -71.8987435 -441.6258335 0.306 0.411 0.282
61.4574291 -74.5487437 -443.7458217 0.502 0.502 0.494
61.8274324 -71.8287528 -442.3458278 0.282 0.404 0.242
61.8874244 -73.1787384 -443.7458217 0.294 0.396 0.242
61.9074292 -74.8687461 -444.2557991 0.463 0.533 0.478
62.6974329 -73.3587518 -444.2957938 0.380 0.510 0.388
62.7074316 -72.1887425 -444.0158010 0.306 0.427 0.254
62.7174228 -71.8187392 -443.4257746 0.282 0.404 0.242
62.9274249 -73.8687441 -445.0857937 0.502 0.502 0.501
62.9274249 -71.9787478 -443.9558089 0.302 0.423 0.250
63.0674288 -73.1387511 -445.0158179 0.294 0.407 0.227
63.7874231 -71.9887465 -445.1058209 0.282 0.419 0.207
64.0074313 -72.0287487 -445.0857937 0.310 0.443 0.297
64.0174225 -71.6687441 -444.9958205 0.286 0.427 0.239
64.0274286 -71.7687458 -445.1758265 0.302 0.435 0.239
40.0874279 -84.0287507 -435.8457923 0.443 0.553 0.462
40.0874279 -79.7887519 -432.9358041 0.494 0.596 0.458
40.1174314 -76.4887482 -430.2157760 0.314 0.459 0.325
40.1274301 -83.9087516 -435.7258379 0.372 0.490 0.388
40.1374288 -75.9587437 -431.7758083 0.498 0.502 0.509
40.1874296 -77.4287507 -431.5558076 0.306 0.443 0.313
40.2974263 -77.3287416 -433.1358075 0.502 0.502 0.501
40.3174274 -79.9887478 -434.3858063 0.502 0.502 0.501
40.4474288 -74.6487528 -429.4958115 0.302 0.451 0.219
41.0574302 -82.5687423 -435.7157946 0.502 0.502 0.501
41.1574282 -78.8887516 -434.1458082 0.502 0.502 0.501
41.3374305 -82.4587420 -435.7458055 0.502 0.502 0.501
41.3374305 -77.3987398 -432.0458174 0.333 0.467 0.328
41.3374305 -76.9887492 -433.2157969 0.502 0.502 0.501
41.3474292 -81.5687478 -435.3558123 0.502 0.502 0.501
41.3474292 -81.2787488 -433.8158071 0.341 0.478 0.349
41.3474292 -81.0487419 -435.1158142 0.502 0.502 0.501
41.3574241 -81.3987404 -433.9258075 0.321 0.459 0.328
41.3574241 -77.5787458 -433.6758256 0.502 0.502 0.501
41.3574241 -76.3587505 -432.6058328 0.502 0.502 0.501
41.3574241 -75.5787492 -429.8958182 0.310 0.459 0.313
41.3774289 -74.8487487 -428.4857810 0.384 0.510 0.365
41.3874276 -76.7087489 -431.3458204 0.314 0.459 0.325
41.3974300 -74.8787448 -430.9458137 0.392 0.447 0.349
41.4074287 -79.3287531 -433.2157969 0.396 0.513 0.372
41.4174274 -83.4387541 -436.1658096 0.502 0.502 0.501
41.4174274 -74.3187442 -429.1258156 0.325 0.482 0.196
41.4274260 -74.4787455 -428.6758006 0.392 0.478 0.337
41.4474308 -74.6087506 -430.4957986 0.349 0.463 0.282
41.4874256 -75.7987425 -432.0857823 0.502 0.502 0.501
41.4974317 -79.7487497 -434.5857799 0.502 0.502 0.501
41.5274277 -78.6787495 -432.9957962 0.411 0.545 0.415
41.6074283 -83.0187425 -435.6057942 0.357 0.486 0.372
42.6474288 -78.5787404 -434.3957901 0.502 0.502 0.501
42.6674262 -82.3087394 -436.0758364 0.502 0.502 0.501
42.6674262 -77.6187405 -432.8058064 0.325 0.474 0.328
42.6774248 -82.3187456 -435.3558123 0.333 0.463 0.349
42.6774248 -80.7187408 -435.3657961 0.502 0.502 0.501
42.6774248 -80.0687373 -433.8558316 0.368 0.494 0.349
42.6774248 -77.9187456 -434.1058135 0.502 0.502 0.501
42.6774248 -73.9187375 -430.3657711 0.306 0.451 0.239
42.6774248 -73.8787428 -430.2157760 0.310 0.463 0.239
42.6874310 -79.7187537 -433.7158203 0.368 0.502 0.357
42.6874310 -76.2787461 -433.0157936 0.502 0.502 0.501
42.6874310 -75.9687498 -431.3658178 0.314 0.459 0.325
42.6974297 -76.4087439 -431.8458140 0.286 0.427 0.285
42.7074283 -74.9487430 -432.1258366 0.161 0.180 0.192
42.7174270 -82.7087462 -435.8758330 0.392 0.521 0.408
42.7274294 -76.0987476 -431.5258265 0.310 0.455 0.321
42.7774265 -79.1787431 -434.7058237 0.502 0.502 0.501
42.8374298 -74.6387392 -431.8358302 0.149 0.188 0.184
42.9274254 -78.4687474 -434.4258010 0.502 0.502 0.501
43.1674309 -77.7987465 -433.1158102 0.341 0.478 0.349
43.2374291 -75.7987425 -433.0157936 0.502 0.502 0.501
43.2974286 -81.2987462 -435.8157814 0.502 0.502 0.501
43.8774303 -73.3087435 -430.5157959 0.314 0.411 0.258
44.0074317 -81.9287524 -436.3158047 0.502 0.502 0.501
44.0074317 -77.9687390 -434.5358014 0.502 0.502 0.501
44.0074317 -77.4387419 -434.2958033 0.502 0.502 0.501
44.0074317 -76.5387416 -432.6858222 0.357 0.494 0.365
44.0174304 -81.4487487 -435.0857735 0.302 0.431 0.309
44.0174304 -80.5187449 -434.4758391 0.341 0.474 0.345
44.0174304 -75.4787475 -433.2358241 0.502 0.502 0.501
44.0174304 -73.7687424 -430.4957986 0.388 0.537 0.376
44.0274291 -76.1787519 -433.7258339 0.502 0.502 0.501
44.0374315 -74.9387443 -432.8958094 0.502 0.502 0.501
44.0374315 -74.4587481 -432.5757921 0.490 0.506 0.509
44.0774299 -79.1687444 -435.0958169 0.502 0.502 0.501
44.1174284 -73.4087452 -430.3358197 0.463 0.584 0.451
44.1374294 -74.7387484 -431.3658178 0.380 0.529 0.384
44.1574305 -73.1187463 -430.5458069 0.361 0.447 0.305
44.1674255 -78.7887424 -434.0758026 0.349 0.486 0.328
44.2274287 -80.8587521 -435.9057844 0.502 0.502 0.501
44.2374274 -82.7987418 -436.6658032 0.502 0.502 0.501
44.4474258 -77.2187486 -434.3458116 0.502 0.502 0.501
44.7174273 -74.6287480 -433.0958128 0.502 0.502 0.501
44.8574312 -73.1887445 -431.8957925 0.498 0.506 0.486
45.1374277 -80.5787519 -436.0758364 0.502 0.502 0.501
45.2574305 -79.7887519 -435.7658029 0.502 0.502 0.501
45.3374274 -81.6087425 -435.6358051 0.282 0.415 0.309
45.3374274 -81.1687484 -435.2558255 0.310 0.439 0.325
45.3374274 -77.0987496 -433.8658154 0.337 0.494 0.357
45.3374274 -74.4487494 -433.3658218 0.502 0.502 0.501
45.3374274 -72.3687410 -431.2557876 0.302 0.345 0.278
45.3474261 -81.8987414 -435.9558225 0.294 0.423 0.317
45.3474261 -78.0687407 -434.4157875 0.333 0.467 0.328
45.3474261 -77.4987489 -434.0658188 0.372 0.521 0.376
45.3474261 -75.3987432 -434.0458214 0.502 0.502 0.501
45.3574285 -74.5587498 -432.1057796 0.353 0.494 0.345
45.3774296 -80.8587521 -436.2858236 0.502 0.502 0.501
45.3774296 -75.5987465 -432.8958094 0.333 0.478 0.345
45.3774296 -73.8187507 -431.5558076 0.404 0.545 0.404
45.3874283 -73.0587468 -432.3157966 0.498 0.506 0.494
45.4074293 -79.4187486 -435.6457889 0.502 0.502 0.501
45.4074293 -76.7687485 -434.6057773 0.502 0.502 0.501
45.4274267 -79.5887485 -435.7358217 0.502 0.502 0.501
45.5774292 -75.8987516 -434.4058335 0.502 0.502 0.501
46.0174270 -73.3087435 -433.0357909 0.502 0.502 0.501
46.6674268 -82.0387527 -436.4858270 0.490 0.510 0.494
46.6674268 -74.4587481 -434.2658222 0.502 0.502 0.501
46.6774255 -78.7787512 -434.7957969 0.415 0.521 0.384
46.6774255 -73.1287450 -433.2658052 0.502 0.502 0.501
46.6874279 -79.0187418 -435.8958006 0.502 0.502 0.501
46.6874279 -76.4787421 -434.2457950 0.364 0.510 0.376
46.6874279 -76.2987435 -434.9858165 0.502 0.502 0.501
46.6874279 -73.9787444 -432.6557815 0.345 0.494 0.349
46.6974303 -80.5387497 -435.3358150 0.318 0.447 0.333
46.7074327 -77.5687471 -435.3558123 0.502 0.502 0.501
46.7174314 -75.5587444 -434.7857833 0.502 0.502 0.501
46.7274301 -80.4887488 -436.5658164 0.502 0.502 0.501
46.7374250 -75.7587403 -433.9057803 0.388 0.533 0.400
46.7574261 -72.3087490 -431.9458008 0.498 0.584 0.501
46.8174294 -78.6087513 -435.7458055 0.502 0.502 0.501
46.9074287 -74.3987411 -434.3557954 0.502 0.502 0.501
47.1974313 -72.4887475 -433.1457913 0.231 0.258 0.231
47.9974300 -76.8687427 -435.6757998 0.502 0.502 0.501
48.0074286 -79.8987448 -435.3158176 0.368 0.498 0.376
48.0074286 -79.4187486 -436.4758134 0.502 0.502 0.501
48.0074286 -77.7687430 -435.9358251 0.502 0.502 0.501
48.0174311 -81.5287456 -436.0858202 0.361 0.467 0.392
48.0174311 -80.1787525 -435.3558123 0.380 0.510 0.388
48.0174311 -77.2787407 -435.8058274 0.502 0.502 0.501
48.0174311 -76.1687458 -434.7257912 0.353 0.490 0.365
48.0174311 -75.0887468 -435.1758063 0.502 0.502 0.501
48.0174311 -74.3387416 -434.8558187 0.502 0.502 0.501
48.0174311 -73.7087429 -433.5557818 0.361 0.498 0.369
48.0174311 -73.1687471 -433.3457947 0.411 0.549 0.419
48.0674282 -80.9587464 -436.6858006 0.502 0.502 0.501
48.1274277 -74.7187510 -434.1058135 0.345 0.486 0.376
48.2274294 -77.6187405 -435.4358017 0.345 0.478 0.333
48.2974276 -73.1087402 -434.4258010 0.502 0.502 0.501
48.6374274 -75.9687498 -435.6857836 0.502 0.502 0.501
49.3374281 -78.3187374 -435.5258048 0.407 0.529 0.404
49.3374281 -76.1887431 -435.2458119 0.435 0.556 0.431
49.3474267 -72.7587417 -434.1758192 0.431 0.549 0.439
49.3474267 -72.4787414 -434.6358180 0.502 0.502 0.501
49.3574291 -75.3087476 -435.8658195 0.502 0.502 0.501
49.3674278 -81.4387426 -436.8358254 0.502 0.502 0.501
49.3674278 -75.7787451 -435.1058304 0.372 0.506 0.376
49.3774265 -79.4587508 -436.7158115 0.502 0.502 0.501
49.3774265 -73.8087445 -434.4758391 0.361 0.490 0.369
49.3874252 -76.7487437 -436.3058209 0.502 0.502 0.501
49.4074300 -80.2687481 -436.7658198 0.502 0.502 0.501
49.4074300 -79.2387500 -435.5357885 0.353 0.486 0.357
49.4074300 -78.5187483 -436.7857873 0.502 0.502 0.501
49.4674295 -74.8187453 -434.7857833 0.345 0.482 0.357
49.8474278 -74.3687451 -435.8157814 0.502 0.502 0.501
50.0174277 -78.8787454 -437.0257854 0.502 0.502 0.501
50.1474291 -78.1287476 -437.0257854 0.502 0.502 0.501
50.3374301 -80.4487467 -437.0257854 0.502 0.502 0.501
50.3974296 -81.5587491 -437.0357990 0.502 0.502 0.501
50.5074263 -77.3087442 -437.0558262 0.502 0.502 0.501
50.6474301 -73.1187463 -435.7157946 0.502 0.502 0.501
50.6674312 -77.1587417 -436.0158145 0.372 0.494 0.361
50.6674312 -74.3187442 -435.2257848 0.349 0.486 0.361
50.6874286 -77.8487474 -436.0258281 0.388 0.513 0.369
50.6874286 -77.3187503 -437.1358156 0.502 0.502 0.501
50.6874286 -75.1687363 -435.5158210 0.384 0.533 0.388
50.6874286 -73.7987459 -436.0258281 0.502 0.502 0.501
50.6874286 -73.2087493 -434.9658191 0.411 0.541 0.427
50.6974272 -81.0987502 -436.4758134 0.341 0.451 0.361
50.7074334 -81.8187445 -436.8358254 0.368 0.474 0.408
50.7074334 -80.9587464 -437.1457994 0.502 0.502 0.501
50.7074334 -77.9987425 -437.2257888 0.502 0.502 0.501
50.7274270 -75.8087486 -436.7257953 0.502 0.502 0.501
50.7374294 -79.9987465 -436.2158179 0.353 0.482 0.361
50.8074276 -79.1587457 -437.2257888 0.502 0.502 0.501
50.8674271 -81.5387443 -437.0757937 0.502 0.502 0.501
50.9374291 -72.9887486 -435.8257949 0.502 0.502 0.501
51.2774289 -75.8787468 -437.0357990 0.502 0.502 0.501
51.4074303 -71.7487410 -435.3657961 0.502 0.502 0.501
51.7374277 -79.7487497 -436.4657998 0.364 0.482 0.372
51.7374277 -71.8887448 -435.7358217 0.502 0.502 0.501
52.0074256 -80.1887438 -437.4457896 0.502 0.502 0.501
52.0074256 -78.5887465 -437.7758205 0.502 0.502 0.501
52.0074256 -77.3087442 -437.6458228 0.502 0.502 0.501
52.0074256 -72.1187443 -436.0258281 0.502 0.502 0.501
52.0174243 -79.6987489 -437.4958277 0.502 0.502 0.501
52.0174243 -74.9787465 -436.1758232 0.384 0.517 0.388
52.0174243 -73.7087429 -435.8157814 0.380 0.513 0.384
52.0174243 -72.2587407 -435.4057908 0.482 0.580 0.498
52.0374291 -77.0387501 -436.5058243 0.411 0.533 0.408
52.0874336 -71.6087446 -435.4858100 0.545 0.635 0.564
52.0974323 -74.4487494 -437.0357990 0.502 0.502 0.501
52.1074310 -78.0987442 -436.7057979 0.427 0.549 0.427
52.1274246 -71.6687441 -435.7757866 0.502 0.502 0.501
52.1374270 -81.0487419 -436.6557896 0.361 0.474 0.388
52.1774292 -81.3787431 -437.1958077 0.502 0.502 0.501
52.2274300 -78.7787512 -436.7057979 0.419 0.541 0.415
52.2274300 -75.9287402 -437.5458062 0.502 0.502 0.501
53.0074276 -73.2487440 -437.0158017 0.502 0.502 0.501
53.3374324 -80.5187449 -436.8458390 0.353 0.467 0.388
53.3374324 -78.9587498 -438.1358027 0.502 0.502 0.501
53.3374324 -77.7687430 -437.1858239 0.470 0.588 0.486
53.3374324 -75.5387396 -437.0957911 0.357 0.490 0.353
53.3474311 -77.0287439 -438.1257892 0.502 0.502 0.501
53.3474311 -73.3687431 -436.4057779 0.388 0.521 0.392
53.3474311 -72.0987469 -436.6758168 0.502 0.502 0.501
53.3474311 -71.5687498 -436.3758266 0.502 0.502 0.501
53.3574298 -78.3787444 -436.9958043 0.459 0.580 0.458
53.3674285 -80.5487409 -437.5558197 0.502 0.502 0.501
53.3674285 -73.9687458 -437.5058115 0.502 0.502 0.501
53.3974282 -78.7887424 -436.8658066 0.494 0.616 0.494
53.4774289 -74.8587474 -436.9758368 0.329 0.486 0.349
53.5074286 -72.8987455 -437.1057749 0.502 0.502 0.501
53.6974296 -78.3587471 -438.4057820 0.502 0.502 0.501
53.8674332 -77.2087425 -438.3557737 0.502 0.502 0.501
54.0674292 -78.4687474 -438.5058284 0.502 0.502 0.501
54.1974306 -78.6787495 -438.4957850 0.502 0.502 0.501
54.3374307 -71.8987435 -437.0957911 0.502 0.502 0.501
54.4774272 -75.2287433 -438.3457899 0.502 0.502 0.501
54.5574278 -74.5587498 -438.3557737 0.502 0.502 0.501
54.6674319 -76.0587454 -438.5258257 0.502 0.502 0.501
54.6874292 -80.7787403 -437.4758303 0.502 0.502 0.501
54.6874292 -79.2487413 -438.4857714 0.502 0.502 0.501
54.6874292 -74.6187419 -438.4458065 0.502 0.502 0.501
54.6874292 -71.6087446 -437.1358156 0.502 0.502 0.501
54.6974279 -77.4487481 -438.0557835 0.431 0.553 0.431
54.6974279 -75.8887380 -438.5158122 0.502 0.502 0.501
54.6974279 -73.5487416 -438.0657971 0.502 0.502 0.501
54.7074266 -79.9787417 -438.1658137 0.502 0.502 0.501
54.7074266 -77.7087510 -438.7358129 0.502 0.502 0.501
54.7174253 -73.3687431 -436.9858205 0.407 0.529 0.396
54.7174253 -72.1987486 -436.7057979 0.482 0.596 0.486
54.7274277 -72.4487454 -437.6058280 0.502 0.502 0.501
54.7774285 -75.4687414 -438.1358027 0.404 0.537 0.400
54.7874309 -76.0187432 -438.3058250 0.521 0.651 0.537
54.7874309 -71.8187392 -436.7257953 0.482 0.596 0.486
55.4474294 -73.1687471 -438.4157956 0.502 0.502 0.501
55.6774288 -80.0187439 -438.3758307 0.502 0.502 0.501
56.0074262 -79.0187418 -438.9958084 0.502 0.502 0.501
56.0174249 -75.4887462 -439.3658042 0.502 0.502 0.501
56.0174249 -74.2387474 -437.9057884 0.415 0.537 0.415
56.0174249 -73.2787475 -437.5658035 0.392 0.513 0.388
56.0174249 -72.5787431 -438.5457933 0.502 0.502 0.494
56.0174249 -71.7287436 -438.0258322 0.506 0.498 0.501
56.0474284 -78.0887455 -439.3257797 0.502 0.502 0.501
56.0574308 -79.4987381 -438.2358193 0.411 0.541 0.427
56.0574308 -76.7287463 -439.0158057 0.435 0.568 0.439
56.0574308 -73.5087469 -438.9858544 0.502 0.502 0.501
56.2674291 -80.0887495 -438.5058284 0.502 0.502 0.501
56.4674251 -76.5587464 -439.6757782 0.502 0.502 0.501
56.4874262 -77.5387436 -439.7058189 0.502 0.502 0.501
56.4874262 -75.9087428 -439.6958053 0.502 0.502 0.501
56.4874262 -73.9087462 -439.4258261 0.502 0.502 0.501
56.7074306 -71.6387480 -438.4558201 0.498 0.506 0.501
56.7874312 -74.4887441 -439.6958053 0.502 0.502 0.501
57.2074279 -78.7587464 -439.7357702 0.502 0.502 0.501
57.3374256 -71.3887513 -438.5457933 0.262 0.372 0.215
57.3474281 -73.0487406 -439.6557808 0.502 0.502 0.501
57.3574305 -78.8387433 -439.5057857 0.474 0.592 0.482
57.3674329 -73.4787434 -438.5557771 0.459 0.576 0.435
57.3674329 -71.6687441 -438.3257926 0.345 0.447 0.333
57.8274317 -80.0087452 -439.3458366 0.443 0.549 0.427
58.5274287 -71.9987378 -439.6858215 0.341 0.470 0.301
58.7174259 -72.5787431 -439.4058287 0.419 0.549 0.435
40.1174314 -84.7687423 -358.3858013 0.502 0.502 0.501
40.1974283 -74.8887435 -356.8257689 0.709 0.705 0.686
40.2474329 -77.3487464 -358.0858111 0.502 0.502 0.501
40.4574312 -82.6087520 -358.6158156 0.502 0.502 0.501
40.4574312 -78.7687451 -358.3258092 0.502 0.502 0.501
40.4674299 -86.4787474 -356.9158018 0.502 0.502 0.501
40.7374315 -81.1087415 -358.3357930 0.502 0.502 0.501
40.7974273 -82.0687488 -358.3357930 0.502 0.502 0.501
40.8574305 -76.0087445 -356.9958210 0.502 0.502 0.501
40.8874266 -83.2487494 -358.3157957 0.502 0.502 0.501
41.3374305 -82.2687447 -357.9258025 0.502 0.502 0.501
41.3474292 -75.6587461 -356.4858437 0.502 0.502 0.501
41.3574241 -83.0787495 -357.9558134 0.502 0.502 0.501
41.3574241 -78.4387439 -357.6357961 0.502 0.502 0.501
41.3574241 -76.5087456 -356.9258153 0.502 0.502 0.501
41.3674302 -79.1787431 -357.7558398 0.502 0.502 0.501
41.3874276 -81.2787488 -357.8457832 0.502 0.502 0.501
41.3874276 -77.0687386 -357.1957946 0.502 0.502 0.501
41.4174274 -84.8887414 -357.1458161 0.502 0.502 0.501
41.4774269 -85.7987329 -356.4958274 0.502 0.502 0.501
41.4874256 -85.2087513 -356.8257689 0.502 0.502 0.501
42.0974307 -77.6287466 -356.9958210 0.502 0.502 0.501
42.3574299 -83.7987438 -356.9758236 0.502 0.502 0.501
42.3774309 -79.4287398 -356.9958210 0.502 0.502 0.501
42.4474292 -80.2687481 -356.9858074 0.502 0.502 0.501
42.5174311 -81.5787464 -356.9958210 0.502 0.502 0.501
42.6674262 -82.0387527 -356.8957746 0.502 0.502 0.501
42.6674262 -78.3187374 -356.7058146 0.502 0.502 0.501
42.6774248 -83.9587450 -356.6657901 0.502 0.502 0.501
42.6774248 -79.6587467 -356.7858040 0.502 0.502 0.501
42.6874310 -80.3787410 -356.8057716 0.502 0.502 0.501
42.8174287 -84.0387419 -356.4858437 0.502 0.502 0.501
40.0974266 -80.0987408 -354.9758196 0.227 0.321 0.180
40.1274301 -88.9087543 -350.3058255 0.545 0.592 0.513
40.1674286 -87.8687501 -355.6658030 0.502 0.502 0.501
40.1674286 -73.0987489 -355.6658030 0.686 0.690 0.658
40.1874296 -85.3887498 -352.1258235 0.196 0.290 0.156
40.1874296 -84.0087458 -353.0557752 0.219 0.314 0.180
40.2974263 -81.2687427 -354.2457819 0.161 0.251 0.137
40.3874293 -70.7187429 -352.9757857 0.690 0.694 0.674
40.3974317 -69.1487417 -350.9157896 0.494 0.545 0.466
40.4574312 -72.0287487 -354.2357981 0.686 0.690 0.667
40.7274291 -72.2287446 -351.5957892 0.169 0.262 0.121
40.7874286 -73.4487474 -355.6558192 0.682 0.686 0.662
40.8374332 -83.8487372 -352.8758287 0.212 0.306 0.172
40.9974307 -78.8287446 -354.2658091 0.219 0.329 0.168
41.3374305 -89.2787501 -351.2658179 0.718 0.729 0.694
41.3374305 -87.6687393 -355.2758098 0.502 0.502 0.501
41.3374305 -87.6487419 -350.8058190 0.294 0.396 0.250
41.3374305 -83.6287513 -352.7358472 0.212 0.306 0.172
41.3374305 -82.3787525 -353.5258174 0.180 0.274 0.149
41.3374305 -78.3787444 -353.8558483 0.169 0.262 0.121
41.3374305 -70.3087449 -350.9157896 0.188 0.286 0.129
41.3474292 -88.8187438 -352.8958261 0.345 0.349 0.325
41.3474292 -88.5287449 -353.8058102 0.345 0.353 0.349
41.3474292 -86.0987455 -351.5157998 0.200 0.294 0.160
41.3474292 -75.3687471 -352.8158367 0.161 0.255 0.113
41.3474292 -72.3387450 -354.1157842 0.674 0.678 0.654
41.3474292 -70.9087476 -351.1058092 0.172 0.270 0.117
41.3574241 -88.4687454 -350.3358066 0.372 0.474 0.328
41.3574241 -86.8387371 -356.1857939 0.502 0.502 0.501
41.3574241 -77.3087442 -353.4657955 0.172 0.266 0.125
41.3574241 -68.8187480 -350.4157960 0.533 0.568 0.494
41.3674302 -72.7387443 -351.6258299 0.149 0.243 0.102
41.3774289 -84.8487467 -352.0758152 0.208 0.298 0.184
41.3774289 -80.3587437 -354.1458249 0.157 0.235 0.129
41.3774289 -73.4587386 -351.8558145 0.165 0.258 0.125
41.3774289 -71.3487417 -353.0557752 0.698 0.702 0.682
41.3874276 -79.6987489 -354.2958200 0.298 0.392 0.258
41.3974300 -74.4487494 -355.7958007 0.709 0.694 0.682
41.3974300 -71.1387396 -352.8657854 0.702 0.705 0.686
41.4174274 -85.4087472 -351.7957926 0.192 0.286 0.152
41.4174274 -73.4787434 -355.2558422 0.694 0.690 0.671
41.4374322 -88.4887427 -350.3358066 0.361 0.455 0.321
41.4374322 -88.1387442 -354.4657826 0.502 0.502 0.501
41.4374322 -82.9287395 -353.0358076 0.200 0.294 0.160
41.4374322 -70.4587474 -352.2457778 0.686 0.690 0.667
41.4574295 -73.1587484 -355.0358415 0.686 0.690 0.667
41.5274277 -69.2287460 -350.3058255 0.247 0.325 0.180
41.5374301 -73.1187463 -351.7058194 0.153 0.247 0.113
41.5874273 -75.9387463 -353.0258238 0.165 0.258 0.117
41.8174304 -69.3387464 -350.1957953 0.231 0.318 0.168
41.8874249 -76.3187483 -352.9957831 0.188 0.282 0.141
41.9074297 -74.8387426 -355.6658030 0.502 0.502 0.501
41.9674292 -82.6587528 -352.9757857 0.196 0.290 0.156
42.0474298 -85.3087455 -351.6157866 0.196 0.290 0.164
42.0574248 -73.5187456 -351.6458273 0.141 0.235 0.094
42.2674268 -86.5987465 -355.6658030 0.502 0.502 0.501
42.3174277 -87.9487470 -354.2357981 0.502 0.502 0.501
42.3374251 -76.0187432 -352.7558148 0.192 0.294 0.149
42.3674323 -89.3387347 -351.1058092 0.765 0.776 0.741
42.6274315 -77.3887411 -352.8358042 0.184 0.278 0.145
42.6674262 -89.2387480 -350.5258262 0.678 0.718 0.686
42.6674262 -85.7887492 -351.1958122 0.200 0.290 0.176
42.6674262 -80.3587437 -353.3658087 0.165 0.258 0.133
42.6674262 -77.6987448 -352.9258072 0.169 0.262 0.121
42.6674262 -74.5587498 -355.0058007 0.502 0.502 0.501
42.6674262 -73.7187415 -351.4758050 0.169 0.270 0.125
42.6674262 -73.0587468 -351.2658179 0.165 0.266 0.121
42.6674262 -72.8587434 -354.0157974 0.694 0.682 0.662
42.6674262 -69.7787404 -349.9558270 0.223 0.341 0.137
42.6774248 -87.5387490 -350.5858183 0.266 0.361 0.235
42.6774248 -85.7187435 -355.7157815 0.502 0.502 0.501
42.6774248 -84.3887404 -351.9758284 0.196 0.290 0.164
42.6774248 -83.9887485 -352.0758152 0.204 0.294 0.180
42.6774248 -74.6487528 -351.8257737 0.145 0.247 0.102
42.6774248 -70.4287440 -351.6258299 0.694 0.698 0.667
42.6774248 -69.1787452 -349.6558070 0.231 0.341 0.149
42.6874310 -88.5887444 -352.6858091 0.368 0.411 0.357
42.6974297 -88.5287449 -350.1458168 0.282 0.392 0.235
42.6974297 -82.6587528 -352.4658084 0.188 0.266 0.156
42.6974297 -78.2087445 -353.0958295 0.172 0.266 0.125
42.6974297 -75.7087469 -352.3958027 0.169 0.270 0.125
42.7074283 -87.1587470 -354.9558520 0.502 0.502 0.501
42.7074283 -76.7087489 -356.1358154 0.502 0.502 0.501
42.7074283 -76.5087456 -352.5857925 0.161 0.262 0.117
42.7274294 -88.2187411 -353.5458148 0.490 0.510 0.494
42.7274294 -85.1887465 -351.4758050 0.184 0.274 0.160
42.7374281 -85.8087465 -355.6457758 0.502 0.502 0.501
42.7374281 -75.0087425 -355.2058041 0.502 0.502 0.501
42.7474342 -79.9087435 -353.3858061 0.161 0.251 0.137
42.7474342 -70.6887469 -351.8358171 0.702 0.705 0.674
42.7574292 -71.8387440 -350.7157862 0.180 0.286 0.117
42.8274311 -73.4287426 -354.2958200 0.694 0.682 0.662
42.9474302 -87.9687443 -353.8157940 0.498 0.498 0.498
42.9474302 -81.2287480 -352.9157937 0.180 0.262 0.141
42.9674312 -85.3287429 -355.6658030 0.502 0.502 0.501
42.9874286 -70.7187429 -350.1258194 0.196 0.321 0.129
43.0474281 -87.9787430 -350.3358066 0.278 0.380 0.227
43.2274267 -74.5487437 -354.6258211 0.502 0.502 0.501
43.3074273 -74.7387484 -351.6058028 0.184 0.286 0.141
43.3674268 -76.1487409 -355.4057777 0.502 0.502 0.501
43.4674248 -68.7087402 -348.9958048 0.274 0.361 0.219
43.4874296 -78.9187402 -352.9857993 0.321 0.407 0.258
43.6074287 -72.3087490 -352.8358042 0.690 0.670 0.654
43.9074300 -72.1687451 -350.3058255 0.200 0.321 0.156
43.9274237 -74.6987462 -354.2457819 0.502 0.502 0.501
43.9574271 -83.8087499 -355.6058109 0.502 0.502 0.501
43.9674258 -69.5387498 -348.9657938 0.278 0.392 0.211
43.9874269 -80.5987492 -355.8157980 0.502 0.502 0.501
44.0074317 -86.7987424 -354.4158041 0.502 0.502 0.501
44.0074317 -86.4587501 -350.5158126 0.239 0.337 0.211
44.0074317 -83.9587450 -355.4857969 0.502 0.502 0.501
44.0074317 -82.3887438 -351.9457877 0.196 0.274 0.168
44.0074317 -80.8787495 -352.4158001 0.176 0.266 0.152
44.0074317 -79.1187435 -355.7358086 0.502 0.502 0.501
44.0074317 -78.1387463 -355.6858003 0.502 0.502 0.501
44.0074317 -77.2787407 -352.0658016 0.180 0.274 0.133
44.0074317 -75.0187486 -351.3558209 0.161 0.270 0.121
44.0074317 -74.4687393 -351.1058092 0.165 0.266 0.121
44.0074317 -70.9787458 -351.4258265 0.698 0.686 0.667
44.0174304 -84.6287459 -351.3157964 0.192 0.286 0.160
44.0174304 -84.4387412 -355.3058207 0.502 0.502 0.501
44.0174304 -73.7287477 -353.6657989 0.502 0.502 0.501
44.0174304 -69.1087395 -349.7858047 0.694 0.694 0.662
44.0274291 -87.2587487 -353.9158404 0.502 0.502 0.501
44.0274291 -77.8187513 -355.6558192 0.502 0.502 0.501
44.0274291 -74.9387443 -354.3057740 0.502 0.502 0.501
44.0274291 -71.8387440 -350.0458002 0.208 0.329 0.156
44.0274291 -70.5187470 -351.0358036 0.705 0.686 0.671
44.0274291 -69.6687475 -350.2958119 0.698 0.686 0.658
44.0374315 -78.7287429 -352.6358008 0.314 0.400 0.258
44.0374315 -77.7587444 -352.1858156 0.169 0.262 0.121
44.0374315 -76.8987462 -355.3557992 0.502 0.502 0.501
44.0374315 -72.2287446 -352.5558114 0.694 0.682 0.654
44.0374315 -71.6387480 -352.0357907 0.686 0.674 0.654
44.0374315 -69.2087486 -348.7758040 0.290 0.392 0.215
44.0474264 -81.2087432 -355.7958007 0.502 0.502 0.501
44.0474264 -73.1487423 -350.6758213 0.180 0.290 0.141
44.0574251 -86.4487439 -354.5058072 0.502 0.502 0.501
44.0574251 -81.6287398 -355.8058143 0.502 0.502 0.501
44.0674275 -87.3687416 -350.3257930 0.227 0.325 0.207
44.0674275 -87.1087462 -350.3558040 0.243 0.341 0.215
44.0674275 -72.0987469 -350.1757979 0.200 0.321 0.149
44.0774299 -82.7487484 -351.8057764 0.196 0.266 0.164
44.0774299 -73.0887428 -353.2757759 0.506 0.502 0.494
44.0874286 -88.4487480 -352.4357975 0.639 0.666 0.634
44.0974273 -89.1387463 -350.5457938 0.580 0.631 0.591
44.1074297 -88.1887451 -350.0558138 0.243 0.353 0.203
44.1274308 -75.3087476 -354.4358015 0.502 0.502 0.501
44.1274308 -69.8487461 -348.9758074 0.341 0.447 0.270
44.1674255 -82.8587413 -355.7757735 0.502 0.502 0.501
44.1774242 -79.9987465 -355.6357920 0.502 0.502 0.501
44.2274287 -80.7087421 -355.6258082 0.502 0.502 0.501
44.2674309 -81.4287513 -355.6357920 0.502 0.502 0.501
44.3874262 -87.9687443 -352.8958261 0.502 0.502 0.501
44.4174297 -86.5087435 -354.2357981 0.502 0.502 0.501
44.4574319 -83.9687437 -351.5858054 0.184 0.278 0.152
44.4774292 -76.1487409 -351.5658379 0.200 0.294 0.152
44.6074307 -86.5087435 -350.3158391 0.208 0.302 0.176
44.7074287 -82.4987441 -351.6358137 0.188 0.266 0.160
44.7674245 -87.4887481 -353.1758189 0.502 0.502 0.501
44.8174290 -70.6887469 -348.8558233 0.231 0.349 0.152
44.8774286 -73.4987482 -352.9658318 0.502 0.502 0.501
44.8874272 -73.3687431 -350.1558006 0.184 0.298 0.125
44.9374281 -77.4887502 -351.6657948 0.212 0.306 0.164
44.9374281 -76.0687515 -354.3157876 0.502 0.502 0.501
45.1574288 -85.1987451 -354.2357981 0.502 0.502 0.501
45.3374274 -88.6587426 -349.9258161 0.258 0.337 0.231
45.3374274 -88.0587474 -352.3057997 0.502 0.502 0.501
45.3374274 -86.9487450 -353.4257710 0.502 0.502 0.501
45.3374274 -83.9387402 -351.2358069 0.169 0.258 0.145
45.3374274 -83.3787471 -354.8658192 0.502 0.502 0.501
45.3374274 -81.2887475 -354.9157977 0.502 0.502 0.501
45.3374274 -79.8587501 -354.8658192 0.502 0.502 0.501
45.3374274 -72.3687410 -349.3957818 0.235 0.384 0.192
45.3374274 -71.3587478 -348.7758040 0.184 0.321 0.109
45.3374274 -69.7787404 -349.6158123 0.702 0.690 0.662
45.3374274 -69.2487434 -347.7758169 0.298 0.384 0.231
45.3474261 -86.4687413 -353.6758125 0.502 0.502 0.501
45.3474261 -85.2987468 -350.3758311 0.188 0.286 0.172
45.3474261 -84.0987489 -354.5857966 0.502 0.502 0.501
45.3474261 -82.5687423 -354.9558520 0.502 0.502 0.501
45.3474261 -80.5187449 -351.7758250 0.145 0.235 0.121
45.3474261 -78.4787461 -354.8157811 0.502 0.502 0.501
45.3474261 -78.0787542 -351.6758084 0.200 0.294 0.152
45.3474261 -76.1587471 -354.1958332 0.502 0.502 0.501
45.3474261 -75.6687447 -350.8658111 0.192 0.286 0.152
45.3474261 -74.2087513 -353.1357944 0.502 0.502 0.501
45.3474261 -73.8187507 -352.9258072 0.502 0.502 0.501
45.3574285 -86.8987441 -350.0558138 0.235 0.333 0.215
45.3574285 -81.3987404 -351.5658379 0.161 0.239 0.129
45.3574285 -79.9987465 -351.9457877 0.188 0.278 0.168
45.3574285 -76.8087432 -351.2558043 0.176 0.270 0.137
45.3574285 -76.6087398 -354.4358015 0.502 0.502 0.501
45.3574285 -73.9187375 -350.0657976 0.176 0.290 0.117
45.3674272 -87.5087455 -352.8358042 0.502 0.502 0.501
45.3674272 -72.9787424 -352.4658084 0.502 0.502 0.501
45.3774296 -89.0787393 -350.8357704 0.525 0.533 0.482
45.3774296 -84.8187506 -354.2958200 0.502 0.502 0.501
45.3774296 -75.0387385 -353.5758257 0.502 0.502 0.501
45.3874283 -78.0987442 -351.6657948 0.212 0.306 0.164
45.3874283 -70.3787431 -348.2757807 0.290 0.407 0.211
45.3974307 -72.0087439 -351.6557813 0.690 0.686 0.667
45.4074293 -71.7887431 -351.4457941 0.690 0.690 0.658
45.4174280 -85.7787430 -350.1957953 0.192 0.282 0.172
45.4474315 -68.8587502 -347.5758135 0.302 0.384 0.254
45.5074273 -85.1287469 -350.3358066 0.188 0.286 0.172
45.5274321 -71.9687417 -349.0058184 0.212 0.353 0.164
45.5374308 -73.0387419 -349.5758176 0.196 0.337 0.156
45.5374308 -69.2587420 -349.0158021 0.698 0.698 0.658
45.5474295 -80.4887488 -351.6557813 0.165 0.255 0.141
45.6174277 -69.4987401 -347.6558030 0.298 0.404 0.235
45.7274280 -72.2287446 -348.9958048 0.262 0.404 0.231
45.9774286 -79.9387470 -351.5458107 0.184 0.274 0.160
45.9974296 -74.6987462 -350.0857949 0.215 0.337 0.176
