44.0203026 -46.5701856 -175.0751883 0.502 0.502 0.500
44.0203026 -46.4201905 -174.2351800 0.200 0.298 0.133
44.0203026 -46.0401885 -174.3151993 0.208 0.298 0.124
44.0203026 -45.4801880 -175.3652096 0.502 0.502 0.500
44.0203026 -45.1801866 -175.4451841 0.502 0.502 0.500
44.0203026 -45.0001881 -174.4651943 0.231 0.357 0.171
44.0203026 -44.0901816 -175.7151932 0.502 0.502 0.500
44.0203026 -44.0001860 -175.7351905 0.502 0.502 0.500
44.0203026 -43.9001843 -174.8052090 0.239 0.357 0.159
44.0203026 -43.4201844 -175.0251949 0.208 0.333 0.141
44.0203026 -43.3301888 -175.9051979 0.502 0.502 0.500
44.0203026 -42.6301844 -175.2251983 0.149 0.212 0.106
44.0203026 -42.5701849 -176.0852039 0.502 0.502 0.500
44.0203026 -41.8001898 -175.4052043 0.109 0.161 0.081
44.0203026 -41.7101867 -176.3052046 0.502 0.502 0.500
44.0303013 -49.6501885 -172.9151905 0.172 0.286 0.214
44.0303013 -46.8301885 -175.0051826 0.502 0.502 0.500
44.0303013 -44.6201861 -174.5551974 0.247 0.372 0.180
44.0303013 -42.9501869 -175.1852185 0.157 0.231 0.106
44.0403000 -45.3301854 -174.3751913 0.243 0.368 0.176
44.1002995 -49.8401858 -173.0652004 0.223 0.298 0.223
44.1303030 -49.8901829 -172.9352027 0.270 0.341 0.284
44.1303030 -44.5701890 -175.5352020 0.502 0.502 0.500
44.1503003 -47.1801832 -174.8951823 0.502 0.502 0.500
44.2803018 -43.4101857 -175.7451892 0.502 0.502 0.500
44.4003046 -48.5901870 -173.6051887 0.274 0.400 0.202
44.4202982 -51.1401817 -173.8651991 0.506 0.506 0.498
44.4202982 -50.5201891 -172.8451997 0.231 0.321 0.257
44.4202982 -50.5001880 -172.9751974 0.192 0.286 0.223
44.4503017 -43.3001854 -174.8851985 0.153 0.235 0.112
44.6702987 -51.1301830 -173.7651974 0.498 0.506 0.500
44.6702987 -51.0201864 -172.9451865 0.215 0.306 0.235
44.6702987 -51.0001816 -173.0052084 0.223 0.318 0.253
44.6702987 -50.4001863 -174.0251929 0.502 0.502 0.500
44.6702987 -50.3401831 -172.7651954 0.482 0.635 0.512
44.6702987 -49.9701872 -173.0151922 0.447 0.604 0.465
44.6702987 -49.7401841 -173.2151955 0.513 0.670 0.525
44.6702987 -49.3801869 -174.2351800 0.502 0.502 0.500
44.6702987 -49.0901843 -174.3151993 0.502 0.502 0.500
44.6702987 -48.4401844 -173.7151891 0.306 0.443 0.223
44.6702987 -47.8501841 -173.9352047 0.282 0.407 0.214
44.6702987 -47.6001874 -174.7352034 0.502 0.502 0.500
44.6702987 -47.2401865 -174.1152108 0.302 0.431 0.223
44.6702987 -47.1101888 -174.8751998 0.502 0.502 0.500
44.6702987 -46.7901826 -174.9452055 0.502 0.502 0.500
44.6702987 -46.5201847 -174.2952019 0.262 0.380 0.184
44.6702987 -46.4001857 -174.9852002 0.502 0.502 0.500
44.6702987 -46.2701842 -174.3051857 0.200 0.306 0.128
44.6702987 -45.5901884 -175.0552058 0.502 0.502 0.500
44.6702987 -45.2701822 -175.1251966 0.502 0.502 0.500
44.6702987 -45.0401865 -174.4251996 0.298 0.423 0.239
44.6702987 -43.5301885 -174.7251898 0.204 0.266 0.159
44.6702987 -43.3301888 -175.5751967 0.502 0.502 0.500
44.6702987 -42.6801890 -175.7351905 0.502 0.502 0.500
44.6702987 -42.5101854 -175.0651896 0.102 0.137 0.055
44.6702987 -42.0101881 -175.4052043 0.298 0.357 0.188
44.6803011 -51.7801866 -173.6151874 0.604 0.612 0.590
44.6803011 -51.6301878 -173.6651957 0.502 0.502 0.494
44.6803011 -49.1101891 -173.4651923 0.262 0.411 0.188
44.6803011 -48.4601893 -174.4951904 0.502 0.502 0.500
44.6803011 -45.8501838 -174.3351966 0.219 0.325 0.155
44.6803011 -44.2501865 -175.3451973 0.502 0.502 0.500
44.6803011 -43.8401923 -175.4451841 0.502 0.502 0.500
44.6803011 -43.3101840 -174.7752130 0.196 0.266 0.163
44.6803011 -42.7801870 -174.9151945 0.094 0.145 0.073
44.6902998 -51.8501848 -173.5651940 0.568 0.576 0.555
44.6902998 -48.6701876 -173.6151874 0.294 0.451 0.214
44.6902998 -44.2001894 -174.5751947 0.215 0.310 0.167
44.7002985 -51.7101847 -173.5852063 0.580 0.604 0.563
44.7103009 -49.2501855 -174.2651910 0.502 0.502 0.500
44.7903015 -51.1701889 -172.7551967 0.231 0.314 0.239
44.8603034 -44.5501879 -175.2052009 0.502 0.502 0.500
44.9902974 -46.5801843 -174.2452085 0.215 0.310 0.167
45.0902991 -51.8001914 -172.7651954 0.176 0.266 0.152
45.2403016 -44.3801880 -174.2452085 0.184 0.258 0.149
45.2403016 -44.1101864 -174.2852032 0.255 0.325 0.223
45.3203022 -52.3401871 -173.0652004 0.165 0.270 0.109
45.3203022 -52.2201881 -172.8952080 0.161 0.258 0.133
45.3203022 -51.6701899 -172.4651903 0.568 0.690 0.619
45.3203022 -51.6001843 -173.7052053 0.502 0.502 0.500
45.3203022 -50.6701842 -173.8751978 0.502 0.502 0.500
45.3203022 -50.4401848 -173.9151925 0.502 0.502 0.500
45.3203022 -50.3901877 -173.1151938 0.349 0.490 0.309
45.3203022 -49.8301871 -173.3051836 0.282 0.423 0.184
45.3203022 -49.6301875 -174.1152108 0.502 0.502 0.500
45.3203022 -49.0401872 -173.5651940 0.314 0.451 0.239
45.3203022 -48.9601865 -173.6151874 0.361 0.498 0.284
45.3203022 -48.2901894 -173.8651991 0.243 0.361 0.163
45.3203022 -48.2801870 -174.4951904 0.502 0.502 0.500
45.3203022 -47.8301868 -174.0251929 0.247 0.345 0.188
45.3203022 -47.1801832 -174.0851849 0.200 0.262 0.149
45.3203022 -46.9601862 -174.6851951 0.502 0.502 0.500
45.3203022 -46.2701842 -174.2051840 0.169 0.239 0.145
45.3203022 -46.1601876 -174.7352034 0.502 0.502 0.500
45.3203022 -45.8801873 -174.2751896 0.180 0.231 0.152
45.3203022 -45.1101884 -174.3852049 0.266 0.345 0.239
45.3203022 -44.5101894 -175.0151962 0.502 0.502 0.500
45.3203022 -44.2101844 -174.2651910 0.258 0.329 0.227
45.3203022 -43.8001864 -174.5352000 0.255 0.329 0.202
45.3203022 -43.7401868 -175.1852185 0.502 0.502 0.500
45.3203022 -43.2701856 -174.8751998 0.290 0.380 0.176
45.3203022 -43.1201905 -175.3252149 0.502 0.502 0.500
45.3203022 -42.7001864 -175.4151881 0.502 0.502 0.500
45.3203022 -42.1501882 -175.5551845 0.502 0.502 0.500
45.3203022 -41.8101884 -175.6352037 0.502 0.502 0.500
45.3203022 -41.6401848 -175.0552058 0.200 0.314 0.196
45.3303009 -51.0901883 -172.7851927 0.459 0.616 0.482
45.3303009 -50.7201850 -172.9751974 0.517 0.659 0.516
45.3303009 -49.1501838 -174.2552072 0.502 0.502 0.500
45.3303009 -47.6101860 -174.6051908 0.502 0.502 0.500
45.3303009 -44.9001901 -174.9351770 0.502 0.502 0.500
45.3403033 -44.5701890 -174.2051840 0.192 0.274 0.152
45.3602970 -44.7901860 -174.2351800 0.172 0.266 0.141
45.3702994 -52.0001911 -173.6252010 0.502 0.502 0.500
45.4503037 -45.9001884 -174.2452085 0.161 0.219 0.137
45.5103032 -42.3701853 -174.8951823 0.192 0.294 0.155
45.5303006 -41.9601873 -174.8751998 0.204 0.302 0.176
45.6202962 -46.3201851 -174.1152108 0.215 0.270 0.171
45.8102971 -42.2701873 -174.6851951 0.204 0.314 0.163
45.9003039 -51.7701879 -173.5852063 0.502 0.502 0.500
45.9703021 -52.1801822 -172.5751907 0.494 0.651 0.516
45.9703021 -51.4401868 -172.8252172 0.286 0.439 0.214
45.9703021 -51.4001846 -173.6451834 0.502 0.502 0.500
45.9703021 -50.7501923 -173.1151938 0.251 0.368 0.163
45.9703021 -50.3901877 -173.8552004 0.502 0.502 0.500
45.9703021 -50.2901897 -173.1951833 0.247 0.364 0.167
45.9703021 -49.6201850 -174.0752161 0.502 0.502 0.500
45.9703021 -49.5801903 -173.5151857 0.227 0.337 0.149
45.9703021 -49.1701886 -173.6252010 0.176 0.258 0.090
45.9703021 -48.4301820 -174.2852032 0.502 0.502 0.500
45.9703021 -48.0001867 -173.8251895 0.149 0.212 0.106
45.9703021 -47.6001874 -174.3852049 0.502 0.502 0.500
45.9703021 -47.1301898 -173.9051938 0.470 0.525 0.426
45.9703021 -46.9201840 -174.4251996 0.502 0.502 0.500
45.9703021 -46.3901870 -174.4451970 0.502 0.502 0.500
45.9703021 -46.0101888 -173.7551838 0.149 0.243 0.192
45.9703021 -45.8401889 -173.6552119 0.321 0.396 0.371
45.9703021 -45.2101864 -174.0052104 0.223 0.302 0.196
45.9703021 -45.1201871 -174.6051908 0.502 0.502 0.500
45.9703021 -44.1401862 -174.8251915 0.502 0.502 0.500
45.9703021 -43.9201891 -174.8751998 0.502 0.502 0.500
45.9703021 -43.2701856 -175.0151962 0.502 0.502 0.500
45.9703021 -42.6501855 -174.6151894 0.204 0.314 0.155
45.9703021 -42.6001884 -175.1651913 0.502 0.502 0.500
45.9703021 -42.0501865 -175.2851903 0.502 0.502 0.500
45.9703021 -41.5901840 -174.6451855 0.215 0.325 0.176
45.9803008 -51.6801886 -173.5952049 0.502 0.502 0.500
45.9803008 -51.0501862 -173.7052053 0.502 0.502 0.500
45.9803008 -47.5001857 -173.8651991 0.157 0.192 0.116
45.9803008 -45.9501892 -174.4951904 0.502 0.502 0.500
45.9803008 -43.0401824 -174.5851934 0.176 0.278 0.124
45.9902994 -43.6901860 -174.9151945 0.502 0.502 0.500
46.0103005 -48.5701859 -174.2552072 0.502 0.502 0.500
46.0103005 -46.1401828 -174.4651943 0.502 0.502 0.500
46.1103022 -46.3101827 -173.5852063 0.117 0.212 0.159
46.2002978 -49.1601862 -173.5852063 0.145 0.212 0.069
46.3302992 -46.6101877 -173.5751927 0.149 0.235 0.184
46.3903025 -46.5901829 -173.5051870 0.169 0.251 0.184
46.4202985 -44.2901850 -174.2452085 0.180 0.266 0.124
46.4402996 -43.9201891 -174.2351800 0.180 0.278 0.124
46.4502983 -43.2501920 -174.2452085 0.208 0.318 0.167
46.5402976 -42.5301902 -174.2452085 0.192 0.302 0.145
46.5502962 -47.2501814 -173.5552102 0.180 0.266 0.184
46.6102995 -51.4201894 -172.9851812 0.227 0.337 0.145
46.6102995 -51.1301830 -173.0851829 0.215 0.306 0.133
46.6102995 -50.6901890 -173.7252027 0.502 0.502 0.500
46.6102995 -50.4401848 -173.7951934 0.502 0.502 0.500
46.6102995 -49.8001873 -173.8951802 0.502 0.502 0.500
46.6102995 -49.6001840 -173.3852029 0.145 0.196 0.077
46.6102995 -49.1701886 -173.4451950 0.188 0.255 0.128
46.6102995 -48.9701889 -173.9951968 0.502 0.502 0.500
46.6102995 -48.4901853 -173.6451834 0.361 0.451 0.349
46.6102995 -47.8001870 -173.7651974 0.157 0.184 0.112
46.6102995 -47.5501865 -173.5852063 0.180 0.258 0.159
46.6102995 -47.1901856 -173.4451950 0.129 0.212 0.137
46.6102995 -46.2301858 -174.2151976 0.502 0.502 0.500
46.6102995 -45.9001884 -173.9051938 0.329 0.411 0.241
46.6102995 -45.1001897 -174.1452068 0.176 0.262 0.112
46.6102995 -43.4501879 -174.1551906 0.208 0.318 0.167
46.6102995 -43.2701856 -174.1452068 0.180 0.290 0.141
46.6102995 -42.9601856 -174.8152077 0.502 0.502 0.500
46.6102995 -42.6501855 -174.8851985 0.502 0.502 0.500
46.6102995 -42.3401855 -174.9452055 0.502 0.502 0.500
46.6102995 -42.2301851 -174.1551906 0.200 0.353 0.180
46.6102995 -41.9801846 -174.1452068 0.258 0.427 0.257
46.6102995 -41.7101867 -175.0351936 0.502 0.502 0.500
46.5402976 -31.1101880 -231.3652039 0.506 0.498 0.500
46.6102995 -31.0801864 -231.1751992 0.533 0.537 0.504
46.6102995 -30.8201872 -231.0552001 0.266 0.333 0.270
35.8402990 -33.0301858 -181.3851893 0.384 0.525 0.249
36.2602994 -32.2401859 -181.7651987 0.388 0.513 0.249
36.2602994 -31.8501890 -182.0652038 0.415 0.537 0.270
36.2602994 -31.0301874 -182.6951951 0.470 0.584 0.325
36.2602994 -30.8701880 -181.7351878 0.302 0.451 0.219
36.2702981 -33.0201872 -181.4151853 0.463 0.537 0.357
36.2702981 -32.9601876 -181.4651787 0.467 0.553 0.369
36.2702981 -31.6301845 -182.2351962 0.439 0.553 0.288
36.3103040 -31.2201865 -181.4752072 0.290 0.439 0.206
36.9003043 -33.1201851 -181.3752055 0.580 0.604 0.547
36.9003043 -32.7801853 -181.5251857 0.506 0.506 0.498
36.9003043 -32.3001854 -181.6451997 0.474 0.517 0.392
36.9003043 -31.2101860 -181.6551983 0.415 0.560 0.357
36.9003043 -31.0701858 -182.5852096 0.631 0.662 0.568
36.9003043 -30.8901854 -181.8852127 0.318 0.467 0.235
36.9202979 -30.8201872 -182.7751994 0.651 0.670 0.590
36.9302966 -31.7401849 -182.0752025 0.564 0.608 0.482
37.5503004 -32.1901850 -181.6651970 0.533 0.588 0.451
37.5503004 -31.2701873 -182.3651940 0.592 0.643 0.533
37.5503004 -31.1201867 -181.6252023 0.368 0.521 0.344
37.5503004 -30.8501851 -182.6852113 0.608 0.639 0.547
37.5603028 -31.0101863 -182.5651824 0.608 0.639 0.547
37.5703014 -32.9401866 -181.4052016 0.502 0.502 0.500
37.6003012 -33.0501869 -181.3752055 0.502 0.502 0.500
38.2002965 -32.8001864 -181.3752055 0.502 0.502 0.500
38.2002965 -32.0401862 -181.7051917 0.502 0.502 0.500
38.2002965 -31.1801862 -182.3551953 0.502 0.502 0.500
38.2002965 -31.0601890 -182.4451983 0.502 0.502 0.500
38.2002965 -30.7801869 -181.4852059 0.294 0.423 0.239
38.2402986 -31.7101851 -181.9552034 0.498 0.506 0.494
38.8503000 -31.5701850 -181.9951981 0.502 0.502 0.500
38.8503000 -31.1201867 -182.2651774 0.502 0.502 0.500
38.8602987 -32.3301852 -181.4151853 0.502 0.502 0.500
38.8903022 -32.3901847 -181.3951880 0.502 0.502 0.500
39.2802991 -31.3701890 -181.9751859 0.502 0.502 0.500
39.4902974 -31.4901881 -181.8251908 0.502 0.502 0.500
39.4902974 -30.8601856 -182.0051968 0.502 0.502 0.500
39.5102985 -32.1001858 -181.5152019 0.502 0.502 0.500
40.1403010 -31.3101858 -181.5351844 0.502 0.502 0.500
40.1403010 -30.9701860 -181.6351861 0.502 0.502 0.500
40.1602983 -31.7301862 -181.4151853 0.502 0.502 0.500
35.8503014 -32.3601887 -180.7251871 0.274 0.447 0.214
35.8902998 -36.9201899 -178.1651974 0.294 0.482 0.192
35.9202996 -32.4901901 -180.6151867 0.286 0.451 0.202
35.9403007 -33.6801857 -179.4751883 0.318 0.474 0.278
35.9503031 -37.5501849 -177.1851927 0.415 0.525 0.284
35.9703004 -33.0101848 -180.1051944 0.490 0.635 0.504
35.9802991 -36.2501852 -178.8052022 0.368 0.525 0.249
36.0402986 -37.5901870 -176.8151969 0.545 0.580 0.473
36.0602997 -37.4901891 -176.8351942 0.498 0.580 0.426
36.1103006 -37.5901870 -177.5051951 0.329 0.486 0.210
36.2602994 -38.1901860 -176.4051914 0.564 0.573 0.516
36.2602994 -38.1701887 -176.3851941 0.568 0.584 0.516
36.2602994 -37.8901847 -177.1951914 0.372 0.506 0.270
36.2602994 -37.5101902 -177.7851880 0.302 0.478 0.206
36.2602994 -37.4501869 -176.6751856 0.306 0.482 0.227
36.2602994 -36.9401872 -178.4152091 0.372 0.517 0.253
36.2602994 -36.5801863 -178.6752045 0.376 0.533 0.253
36.2602994 -36.4001878 -178.8251996 0.380 0.537 0.262
36.2602994 -36.3801830 -177.3651838 0.380 0.533 0.325
36.2602994 -36.1601859 -177.5951982 0.419 0.576 0.379
36.2602994 -36.0101834 -179.0851951 0.376 0.533 0.257
36.2602994 -35.3801884 -178.2052070 0.419 0.556 0.392
36.2602994 -34.5901884 -178.7651926 0.376 0.451 0.235
36.2602994 -34.3701877 -179.0651828 0.353 0.486 0.284
36.2602994 -34.0501852 -179.3451905 0.341 0.506 0.309
36.2602994 -34.0001881 -180.7151884 0.455 0.513 0.392
36.2602994 -33.2901888 -181.2252104 0.459 0.537 0.344
36.2602994 -32.6401852 -180.5951893 0.310 0.470 0.210
36.2602994 -32.4201882 -180.7351857 0.310 0.463 0.214
36.2602994 -31.9501869 -181.0252070 0.349 0.533 0.266
36.2702981 -35.5401896 -179.4151962 0.384 0.545 0.270
36.2702981 -35.4101881 -179.4751883 0.384 0.545 0.270
36.2702981 -34.5001854 -180.2951992 0.407 0.537 0.313
36.2702981 -33.9101851 -179.4552058 0.427 0.580 0.404
36.2702981 -33.8701867 -180.8152050 0.467 0.517 0.408
36.2702981 -33.2301855 -180.0751984 0.270 0.427 0.192
36.2803005 -35.5701856 -178.0551970 0.404 0.549 0.387
36.2803005 -34.8401889 -179.9452007 0.388 0.533 0.270
36.2803005 -33.2201831 -180.0951958 0.255 0.404 0.171
36.2902991 -37.6501903 -177.6251942 0.310 0.470 0.196
36.2902991 -31.5001868 -181.3151836 0.318 0.470 0.214
36.3203026 -36.9201899 -176.9051999 0.419 0.560 0.371
36.3203026 -36.7501862 -177.0451963 0.364 0.517 0.309
36.3302976 -36.2901874 -177.5151938 0.415 0.568 0.396
36.3502987 -38.1901860 -176.8952012 0.427 0.529 0.344
36.4002995 -38.2501855 -176.1451811 0.506 0.616 0.455
36.4103019 -38.1201841 -176.1752069 0.506 0.616 0.457
36.4602990 -35.6001891 -179.4451922 0.372 0.529 0.253
36.5102999 -35.9701887 -179.2051792 0.384 0.529 0.257
36.6503000 -38.8701856 -176.0952026 0.431 0.545 0.325
36.6703011 -38.8401859 -176.2751937 0.419 0.533 0.313
36.7003009 -35.6001891 -178.1651974 0.215 0.345 0.159
36.8302986 -38.1901860 -177.5151938 0.318 0.498 0.214
36.8802994 -37.5401862 -178.1452000 0.380 0.525 0.262
36.9003043 -39.2101854 -175.9552062 0.411 0.521 0.321
36.9003043 -38.9901884 -176.5351892 0.357 0.486 0.270
36.9003043 -38.8001874 -176.8351942 0.302 0.459 0.214
36.9003043 -38.6001840 -175.9152114 0.435 0.564 0.396
36.9003043 -37.7701856 -176.4251888 0.321 0.470 0.270
36.9003043 -37.3801887 -178.2651842 0.376 0.513 0.253
36.9003043 -36.6501845 -178.8052022 0.368 0.494 0.239
36.9003043 -36.3401882 -177.6951849 0.419 0.564 0.404
36.9003043 -36.1301862 -179.1951954 0.380 0.490 0.262
36.9003043 -36.0601880 -177.8952032 0.258 0.400 0.219
36.9003043 -35.6801860 -179.5351952 0.388 0.482 0.278
36.9003043 -35.5901867 -178.2052070 0.286 0.415 0.231
36.9003043 -35.2301858 -179.8651814 0.419 0.482 0.340
36.9003043 -34.2101865 -180.5951893 0.529 0.529 0.498
36.9003043 -34.1201909 -179.5151830 0.270 0.439 0.167
36.9003043 -34.0401866 -180.7251871 0.521 0.533 0.504
36.9003043 -33.2601853 -180.1552027 0.325 0.467 0.214
36.9003043 -32.2301872 -180.9351891 0.396 0.553 0.305
36.9003043 -31.7101851 -181.3151836 0.431 0.596 0.349
36.9103029 -38.1501876 -176.1851758 0.376 0.521 0.317
36.9103029 -38.0301848 -177.7851880 0.353 0.506 0.241
36.9103029 -37.1501893 -176.9751906 0.419 0.560 0.418
36.9103029 -34.8601863 -179.0251881 0.451 0.619 0.439
36.9103029 -34.8101892 -180.1751852 0.478 0.525 0.430
36.9103029 -32.4701853 -180.7651818 0.372 0.533 0.266
36.9202979 -38.7801863 -176.9051999 0.294 0.459 0.210
36.9202979 -37.3301841 -176.8051982 0.388 0.537 0.375
36.9202979 -36.7901884 -178.7151992 0.361 0.486 0.231
36.9202979 -36.7501862 -177.3052067 0.407 0.556 0.404
36.9202979 -32.9801850 -180.3752035 0.321 0.490 0.219
36.9302966 -33.6101875 -179.8851937 0.325 0.470 0.206
36.9402990 -35.6701873 -178.1551987 0.333 0.463 0.284
36.9502977 -33.3301872 -181.2252104 0.556 0.584 0.512
36.9703025 -38.2101871 -177.6152104 0.345 0.506 0.231
36.9803011 -37.5701860 -178.1452000 0.380 0.506 0.257
36.9803011 -35.0501873 -178.9352149 0.498 0.623 0.477
37.0103009 -34.2801847 -179.4251949 0.274 0.427 0.163
37.0303020 -38.8801843 -176.8651903 0.302 0.463 0.227
37.0602980 -39.4901894 -175.8651882 0.443 0.549 0.387
37.1003002 -39.4401848 -176.0552078 0.423 0.529 0.361
37.1003002 -34.9501893 -180.0852120 0.513 0.549 0.473
37.1102989 -39.5701863 -175.5152047 0.580 0.627 0.547
37.2103006 -39.5401865 -176.2551814 0.459 0.545 0.404
37.3403020 -40.1901864 -175.4352003 0.482 0.541 0.412
37.3403020 -40.1501842 -175.5751967 0.482 0.549 0.422
37.3902991 -37.5601836 -176.8451780 0.341 0.490 0.336
37.3902991 -34.3301892 -179.4851869 0.333 0.474 0.223
37.5002995 -36.9201899 -178.8251996 0.396 0.467 0.317
37.5503004 -40.6701863 -175.2952039 0.510 0.560 0.443
37.5503004 -40.0401875 -176.1151850 0.411 0.537 0.353
37.5503004 -39.8101881 -176.3252020 0.368 0.513 0.309
37.5503004 -39.0001871 -175.7851988 0.247 0.388 0.198
37.5503004 -38.6701897 -176.0351807 0.302 0.455 0.270
37.5503004 -38.3001864 -176.3451993 0.337 0.478 0.305
37.5503004 -38.2601842 -177.7952015 0.376 0.510 0.270
37.5503004 -38.1601863 -177.8751910 0.372 0.506 0.266
37.5503004 -38.1301828 -176.4651835 0.364 0.498 0.353
37.5503004 -37.5701860 -178.3152074 0.349 0.463 0.241
37.5503004 -37.4201871 -177.0451963 0.384 0.506 0.344
37.5503004 -37.2801907 -178.5451919 0.361 0.455 0.249
37.5503004 -36.9201899 -178.8652092 0.427 0.478 0.361
37.5503004 -36.8801840 -178.8951904 0.447 0.498 0.396
37.5503004 -36.6401859 -177.5851995 0.345 0.502 0.305
37.5503004 -36.2401903 -177.9151857 0.318 0.467 0.282
37.5503004 -35.2901891 -178.8351983 0.353 0.513 0.239
37.5503004 -35.0401886 -180.0351888 0.553 0.564 0.537
37.5503004 -34.8901860 -179.1951954 0.294 0.470 0.206
37.5503004 -34.3601890 -179.5051992 0.318 0.467 0.227
37.5503004 -34.3501903 -180.5351973 0.553 0.560 0.541
37.5503004 -33.9601859 -180.8152050 0.545 0.541 0.520
37.5503004 -33.3101898 -181.2751889 0.573 0.580 0.537
37.5503004 -33.0901854 -180.3551763 0.411 0.564 0.349
37.5503004 -32.8101888 -180.5652082 0.435 0.596 0.375
37.5603028 -40.3401814 -175.8351922 0.482 0.545 0.439
37.5603028 -39.3201858 -176.8151969 0.376 0.541 0.292
37.5603028 -37.6501903 -176.8552065 0.364 0.513 0.353
37.5603028 -36.8301906 -177.4452031 0.223 0.353 0.167
37.5603028 -35.9201841 -178.1851947 0.478 0.623 0.461
37.5603028 -35.8301885 -179.6251833 0.474 0.498 0.451
37.5603028 -35.4501866 -178.6051989 0.451 0.596 0.422
37.5603028 -34.1401845 -180.6851923 0.549 0.556 0.537
37.5603028 -32.4201882 -180.8051914 0.467 0.619 0.404
37.5603028 -31.8801850 -181.1151952 0.400 0.541 0.353
37.5703014 -39.8601890 -175.4151881 0.400 0.498 0.371
37.5703014 -39.2001867 -176.9551933 0.364 0.529 0.282
37.5703014 -34.0301841 -179.7351986 0.337 0.486 0.253
37.5703014 -31.7001864 -181.2551916 0.407 0.556 0.357
37.6003012 -36.2001881 -179.3852150 0.467 0.513 0.426
37.6003012 -33.5301906 -180.0751984 0.357 0.517 0.288
37.6102999 -38.7701876 -177.4351746 0.380 0.521 0.270
37.6402996 -40.8401862 -175.2751917 0.521 0.564 0.447
37.7002992 -40.8201888 -175.5951792 0.376 0.494 0.296
37.7802998 -34.9701829 -180.0951958 0.568 0.573 0.547
37.8102995 -40.1701890 -176.2052029 0.310 0.494 0.210
37.8802978 -39.5201892 -176.8451780 0.392 0.545 0.296
37.8903002 -41.5201820 -175.1251966 0.482 0.502 0.412
37.9702970 -38.8401859 -177.5051951 0.392 0.490 0.274
38.0102992 -37.0301865 -177.4951965 0.321 0.463 0.274
38.1202996 -38.2201858 -178.1651974 0.525 0.556 0.512
38.2002965 -41.2501879 -175.8951843 0.392 0.553 0.278
38.2002965 -41.2201881 -175.0751883 0.549 0.608 0.525
38.2002965 -40.6501889 -175.2052009 0.227 0.349 0.176
38.2002965 -40.2401872 -176.5651852 0.384 0.537 0.282
38.2002965 -40.1201844 -175.4352003 0.239 0.361 0.188
38.2002965 -39.7401862 -176.8952012 0.411 0.537 0.288
38.2002965 -39.4701846 -175.8452058 0.251 0.376 0.223
38.2002965 -39.3201858 -177.2551835 0.435 0.521 0.336
38.2002965 -38.6901908 -177.8151840 0.486 0.517 0.435
38.2002965 -38.6701897 -176.3751954 0.302 0.431 0.262
38.2002965 -37.8101878 -176.9151986 0.341 0.498 0.288
38.2002965 -37.1901840 -177.4252057 0.364 0.506 0.317
38.2002965 -37.1701866 -178.8751930 0.545 0.556 0.520
38.2002965 -36.8201882 -179.1051775 0.537 0.545 0.494
38.2002965 -36.6801880 -177.8652072 0.376 0.549 0.317
38.2002965 -36.2301879 -178.1951934 0.321 0.482 0.214
38.2002965 -36.1001864 -179.4251949 0.502 0.502 0.500
38.2002965 -35.1401865 -179.9851954 0.560 0.584 0.543
38.2002965 -34.5901884 -179.4751883 0.368 0.525 0.278
38.2002965 -34.5001854 -180.4551780 0.576 0.580 0.547
38.2002965 -34.0201892 -179.9052060 0.419 0.564 0.361
38.2002965 -33.3101898 -181.2451929 0.502 0.502 0.500
38.2002965 -33.1401862 -180.3652048 0.404 0.556 0.349
38.2002965 -32.9501890 -181.3352108 0.502 0.502 0.500
38.2002965 -32.8601860 -180.5351973 0.384 0.533 0.349
38.2002965 -32.3301852 -180.7752103 0.427 0.580 0.404
38.2002965 -31.6201895 -181.0552031 0.443 0.588 0.418
38.2102989 -39.9801880 -176.7452061 0.396 0.537 0.292
38.2102989 -38.8401859 -177.6852161 0.474 0.513 0.414
38.2102989 -38.1101891 -176.7151952 0.200 0.333 0.137
38.2102989 -37.4401882 -178.7052006 0.564 0.576 0.547
38.2102989 -36.0401869 -179.4451922 0.502 0.502 0.500
38.2102989 -35.2401882 -178.9551973 0.302 0.463 0.227
38.2102989 -34.7101912 -179.3951988 0.341 0.494 0.245
38.2102989 -34.1501832 -180.7052046 0.564 0.568 0.537
38.2102989 -33.8701867 -180.9051931 0.564 0.568 0.537
38.2203013 -39.7001877 -175.7051945 0.231 0.357 0.202
38.2203013 -38.9401838 -176.2052029 0.325 0.470 0.309
38.2203013 -38.1401852 -178.2451868 0.537 0.573 0.551
38.2203013 -31.0501866 -181.3652068 0.423 0.560 0.396
38.2302999 -37.1101871 -177.5151938 0.431 0.573 0.383
38.2402986 -38.2901877 -178.1452000 0.545 0.564 0.541
38.2602997 -35.5801880 -178.6952019 0.302 0.459 0.180
38.2702984 -40.8301875 -176.2351990 0.380 0.525 0.262
38.2902995 -36.2701863 -178.1851947 0.302 0.459 0.214
38.3103006 -35.0001864 -180.0951958 0.560 0.580 0.551
38.3502990 -32.2801881 -180.7151884 0.411 0.564 0.387
38.4002998 -40.1301831 -175.5551845 0.247 0.364 0.214
38.4803005 -33.6501859 -180.0651848 0.380 0.529 0.336
38.5802984 -39.3101834 -176.0952026 0.231 0.357 0.171
38.6103019 -40.1601903 -176.8651903 0.349 0.407 0.245
38.6403017 -38.1901860 -176.8451780 0.282 0.451 0.231
38.8403013 -41.4301865 -176.1952043 0.380 0.443 0.288
38.8503000 -41.1301851 -175.2751917 0.235 0.361 0.167
38.8503000 -40.9401841 -176.5052080 0.357 0.415 0.300
38.8503000 -40.7601893 -176.6152084 0.341 0.400 0.284
38.8503000 -40.7401845 -175.4251868 0.243 0.372 0.202
38.8503000 -40.4801853 -175.5551845 0.298 0.423 0.270
38.8503000 -40.4001847 -176.8451780 0.321 0.361 0.253
38.8503000 -39.7801884 -175.9351939 0.161 0.270 0.112
38.8503000 -39.4901894 -177.4851978 0.556 0.564 0.559
38.8503000 -39.3801853 -177.5552034 0.545 0.553 0.547
38.8503000 -38.9501862 -176.4051914 0.306 0.470 0.274
38.8503000 -38.5001861 -178.1352013 0.556 0.564 0.543
38.8503000 -38.0701870 -178.4152091 0.568 0.588 0.559
38.8503000 -37.1201858 -178.9651811 0.502 0.502 0.500
38.8503000 -36.8401855 -177.9151857 0.282 0.427 0.163
38.8503000 -36.6201885 -179.1351885 0.502 0.502 0.500
38.8503000 -36.5201868 -178.1551987 0.274 0.427 0.171
38.8503000 -36.2401903 -178.3751845 0.286 0.467 0.184
38.8503000 -35.9201841 -179.4251949 0.502 0.502 0.500
38.8503000 -35.7001871 -179.5952022 0.502 0.502 0.500
38.8503000 -35.5401896 -178.7851900 0.329 0.490 0.214
38.8503000 -35.0601859 -180.0651848 0.576 0.596 0.568
38.8503000 -34.8101892 -180.2552044 0.580 0.592 0.563
38.8503000 -34.2201889 -179.7152013 0.357 0.506 0.305
38.8503000 -33.5601866 -181.1051965 0.502 0.502 0.494
38.8503000 -33.5601866 -179.9452007 0.357 0.486 0.300
38.8503000 -32.7201895 -180.3252101 0.431 0.576 0.375
38.8503000 -32.5401872 -181.3551933 0.502 0.502 0.500
38.8503000 -32.2201885 -180.5351973 0.310 0.427 0.192
38.8503000 -31.5301865 -180.8551997 0.208 0.321 0.149
38.8503000 -30.9201851 -181.2351942 0.580 0.682 0.494
38.8602987 -38.6101864 -176.8451780 0.415 0.588 0.357
38.8602987 -38.2401869 -178.3051938 0.556 0.564 0.543
38.8602987 -38.0701870 -177.0052016 0.372 0.564 0.305
38.8602987 -37.3701863 -177.4951965 0.231 0.392 0.133
38.8602987 -34.7401835 -179.4151962 0.364 0.513 0.288
38.8602987 -34.4901904 -179.5252115 0.357 0.510 0.300
38.8602987 -34.0001881 -180.8551997 0.592 0.592 0.543
38.8703011 -39.4701846 -176.0552078 0.176 0.298 0.133
38.8703011 -38.7901887 -176.7751873 0.407 0.576 0.369
38.8703011 -35.0201875 -180.0951958 0.584 0.596 0.568
38.8703011 -34.3001857 -180.6352139 0.608 0.608 0.568
38.8803035 -37.5201888 -177.3751974 0.262 0.415 0.159
38.8803035 -33.1801884 -180.0951958 0.380 0.521 0.349
38.9003009 -41.4901897 -176.1952043 0.368 0.423 0.284
38.9502980 -31.7101851 -180.7052046 0.180 0.298 0.102
39.0203036 -35.5901867 -178.7651926 0.302 0.455 0.198
39.0703008 -38.8601869 -176.8451780 0.447 0.619 0.387
39.0903018 -39.5401865 -177.5051951 0.545 0.564 0.547
39.1103029 -37.5201888 -177.4552017 0.247 0.400 0.145
39.1702987 -32.3501863 -181.3652068 0.502 0.502 0.500
39.2103009 -39.4801870 -176.2451977 0.270 0.455 0.249
39.2403007 -37.5101902 -178.7651926 0.502 0.502 0.500
39.2802991 -34.2101865 -179.3852150 0.302 0.423 0.249
39.3403023 -32.9401866 -180.0751984 0.215 0.361 0.159
39.4103006 -37.5801884 -177.4951965 0.266 0.419 0.163
39.4902974 -41.3601883 -175.3252149 0.157 0.274 0.124
39.4902974 -41.1701873 -176.6051799 0.255 0.255 0.223
39.4902974 -40.7401845 -176.8451780 0.286 0.282 0.266
39.4902974 -40.7401845 -175.3751934 0.188 0.306 0.171
39.4902974 -40.0401875 -177.2551835 0.537 0.533 0.525
39.4902974 -39.8901850 -175.9051979 0.302 0.447 0.284
39.4902974 -39.4401848 -176.4051914 0.474 0.647 0.447
39.4902974 -38.6501849 -176.9651920 0.204 0.341 0.112
39.4902974 -38.1401852 -177.2352010 0.247 0.380 0.145
39.4902974 -38.1001905 -178.5252094 0.506 0.498 0.500
39.4902974 -37.5501849 -177.5351912 0.270 0.423 0.167
39.4902974 -37.4601856 -177.5951982 0.282 0.427 0.163
39.4902974 -37.1101871 -178.8652092 0.502 0.502 0.494
39.4902974 -36.8301906 -178.9551973 0.502 0.502 0.500
39.4902974 -36.6301872 -178.1551987 0.318 0.470 0.214
39.4902974 -35.9001867 -178.6251962 0.306 0.459 0.210
39.4902974 -35.8501859 -179.5051992 0.502 0.502 0.500
39.4902974 -35.3901871 -178.8052022 0.278 0.423 0.219
39.4902974 -34.8401889 -179.1051775 0.302 0.427 0.241
39.4902974 -34.8301865 -180.2652031 0.596 0.596 0.555
39.4902974 -33.7701887 -179.6752065 0.302 0.427 0.231
39.4902974 -33.4201865 -179.8252016 0.270 0.396 0.210
39.4902974 -33.0901854 -181.1552197 0.502 0.502 0.500
39.4902974 -32.9801850 -179.9752116 0.153 0.298 0.094
39.4902974 -32.8001864 -181.2252104 0.502 0.502 0.500
39.4902974 -32.2701856 -180.3252101 0.407 0.525 0.321
39.4902974 -30.7601858 -181.0351908 0.235 0.384 0.152
39.5002998 -39.6401845 -177.5151938 0.545 0.564 0.547
39.5002998 -38.5601893 -178.2251894 0.560 0.568 0.555
39.5002998 -37.5101902 -178.7251979 0.502 0.502 0.500
39.5002998 -36.0201858 -179.3752015 0.502 0.502 0.500
39.5002998 -34.2501886 -180.6951910 0.596 0.596 0.547
39.5002998 -34.2001878 -179.3552041 0.270 0.396 0.210
39.5102985 -39.5001881 -176.3252020 0.455 0.619 0.430
39.5102985 -39.1801856 -177.8252125 0.545 0.568 0.559
39.5102985 -38.9001891 -176.8852025 0.208 0.345 0.124
39.5102985 -35.3101864 -179.9052060 0.592 0.592 0.559
39.5102985 -34.0101868 -180.8751822 0.616 0.600 0.555
39.5202972 -40.2001888 -175.6352037 0.329 0.474 0.300
39.5202972 -36.7201865 -178.0851930 0.302 0.463 0.202
39.5202972 -35.5501845 -178.7151992 0.266 0.415 0.192
39.5202972 -31.3101858 -180.9252053 0.337 0.463 0.198
39.5302996 -40.7701880 -176.8351942 0.345 0.341 0.325
39.5302996 -38.7201831 -178.1252027 0.564 0.573 0.568
39.5402983 -32.6701887 -180.0951958 0.223 0.333 0.145
39.5402983 -32.3401876 -181.3352108 0.502 0.502 0.500
39.5703018 -34.9701829 -180.1651865 0.596 0.596 0.555
39.6003015 -40.7801867 -176.8552065 0.482 0.482 0.473
39.6602973 -31.6101871 -180.7151884 0.318 0.443 0.188
39.7803001 -31.0301874 -180.7151884 0.204 0.333 0.124
39.8102999 -39.6801867 -176.2751937 0.463 0.627 0.430
39.9802998 -34.9001847 -178.9752096 0.231 0.357 0.159
40.1403010 -41.3501896 -175.0952005 0.286 0.427 0.284
40.1403010 -40.7501906 -175.3751934 0.419 0.568 0.414
40.1403010 -40.6801887 -177.0252138 0.635 0.639 0.654
40.1403010 -40.4801853 -175.6151915 0.431 0.616 0.404
40.1403010 -40.0801860 -175.9852022 0.400 0.588 0.353
40.1403010 -39.7401862 -176.3352007 0.368 0.517 0.317
40.1403010 -39.2101854 -176.7252088 0.290 0.435 0.223
40.1403010 -39.1001850 -177.9952049 0.573 0.592 0.576
40.1403010 -38.6401862 -177.0851910 0.180 0.306 0.112
40.1403010 -38.5001861 -178.2752126 0.502 0.502 0.500
40.1403010 -37.7401896 -177.5552034 0.286 0.415 0.206
40.1403010 -37.2801907 -177.8451949 0.310 0.463 0.214
40.1403010 -36.9201899 -178.8251996 0.502 0.502 0.500
40.1403010 -36.8601866 -178.0951917 0.290 0.439 0.206
40.1403010 -36.5101844 -178.2151908 0.282 0.415 0.214
40.1403010 -36.0601880 -178.3152074 0.294 0.411 0.214
40.1403010 -36.0301882 -179.3852150 0.502 0.502 0.500
40.1403010 -35.7901864 -179.5652062 0.498 0.498 0.498
40.1403010 -35.5901867 -178.5952002 0.231 0.361 0.145
40.1403010 -35.5601832 -179.7451973 0.588 0.588 0.547
40.1403010 -34.4801880 -179.1851968 0.188 0.298 0.109
40.1403010 -34.1001861 -180.6352139 0.502 0.502 0.500
40.1403010 -33.6201862 -179.5051992 0.298 0.400 0.210
40.1403010 -33.2801864 -180.9351891 0.502 0.502 0.500
40.1403010 -32.6201841 -180.0852120 0.310 0.447 0.196
40.1403010 -32.4601866 -181.2151968 0.502 0.502 0.500
40.1403010 -32.3001854 -180.1951975 0.266 0.407 0.155
40.1403010 -31.6201895 -180.3151816 0.192 0.310 0.106
40.1403010 -30.7201855 -180.5251986 0.192 0.318 0.120
40.1502997 -41.1701873 -176.7552048 0.631 0.635 0.641
40.1502997 -40.1001908 -177.3552001 0.608 0.616 0.611
40.1502997 -39.5501852 -177.7051985 0.573 0.580 0.568
40.1502997 -37.8301851 -178.5051823 0.502 0.502 0.500
40.1502997 -37.2401848 -178.7052006 0.502 0.502 0.500
40.1502997 -34.8301865 -180.2951992 0.627 0.612 0.563
40.1502997 -33.9601859 -179.3752015 0.165 0.270 0.109
40.1502997 -32.1701840 -181.2952012 0.502 0.502 0.500
40.1602983 -40.9801863 -176.8552065 0.651 0.655 0.671
40.1602983 -36.3901854 -179.1252047 0.502 0.502 0.500
40.1602983 -35.0901857 -178.8951904 0.243 0.357 0.167
40.1602983 -32.9701863 -179.9252033 0.341 0.463 0.227
40.1703008 -33.6601883 -179.4851869 0.302 0.404 0.214
40.1803032 -38.0701870 -177.3851961 0.251 0.376 0.184
40.1903018 -35.0701883 -180.1051944 0.616 0.608 0.559
40.2002968 -38.9001891 -176.9251972 0.219 0.345 0.152
40.2102992 -33.7601900 -180.7351857 0.502 0.502 0.500
40.2803011 -31.6901878 -181.3652068 0.502 0.502 0.500
40.3002985 -32.2901867 -180.0751984 0.239 0.368 0.152
40.3403006 -33.6301886 -180.7151884 0.502 0.502 0.500
40.3403006 -32.6901861 -181.0451895 0.502 0.502 0.500
40.3502993 -38.8301872 -178.1252027 0.502 0.502 0.500
40.4203013 -40.1501842 -176.1952043 0.368 0.529 0.292
40.4403023 -31.6901878 -180.0651848 0.188 0.310 0.137
40.4803008 -40.8601873 -175.5651981 0.333 0.490 0.241
40.5203030 -31.3101858 -181.3451946 0.502 0.502 0.500
40.6102985 -31.0501866 -181.3652068 0.502 0.502 0.500
40.6702980 -34.8701850 -180.0751984 0.502 0.502 0.500
40.7902971 -41.3201861 -175.4651964 0.329 0.470 0.282
40.7902971 -41.2601866 -175.5851954 0.306 0.451 0.245
40.7902971 -40.9701876 -177.0651937 0.643 0.647 0.654
40.7902971 -40.5701883 -177.2551835 0.647 0.651 0.658
40.7902971 -39.9201885 -176.5452027 0.341 0.502 0.266
40.7902971 -39.4401848 -176.7751873 0.262 0.407 0.196
40.7902971 -39.2501876 -177.9052019 0.502 0.502 0.500
40.7902971 -38.7801863 -178.0751944 0.502 0.502 0.500
40.7902971 -38.5601893 -177.1951914 0.208 0.337 0.120
40.7902971 -38.0201861 -178.3351898 0.502 0.502 0.500
40.7902971 -37.7601869 -177.5251925 0.215 0.341 0.149
40.7902971 -37.3601876 -177.6852161 0.247 0.392 0.180
40.7902971 -36.7101878 -178.9151877 0.502 0.502 0.500
40.7902971 -36.5601890 -178.1052053 0.262 0.372 0.180
40.7902971 -35.9201841 -179.4952005 0.502 0.502 0.500
40.7902971 -35.3301838 -178.6151826 0.137 0.223 0.073
40.7902971 -35.0901857 -179.9351871 0.506 0.498 0.500
40.7902971 -34.7501859 -178.8652092 0.262 0.349 0.167
40.7902971 -34.1301896 -180.3252101 0.502 0.502 0.500
40.7902971 -33.6201862 -179.4051975 0.251 0.364 0.137
40.7902971 -33.6001851 -180.5151999 0.502 0.502 0.500
40.7902971 -33.0001861 -179.4952005 0.215 0.333 0.137
40.7902971 -32.8401886 -180.7752103 0.502 0.502 0.500
40.7902971 -32.2701856 -180.8951944 0.502 0.502 0.500
40.7902971 -31.8201892 -179.7851920 0.180 0.310 0.124
40.7902971 -31.4701870 -181.1451912 0.502 0.502 0.500
40.7902971 -31.0101863 -180.0951958 0.180 0.310 0.124
40.7902971 -30.9001859 -181.3151836 0.502 0.502 0.500
40.8002995 -40.1701890 -176.4352173 0.361 0.537 0.305
40.8002995 -39.9701856 -177.5651872 0.619 0.623 0.630
40.8002995 -39.0001871 -177.0252138 0.215 0.341 0.149
40.8002995 -38.5701880 -178.1452000 0.502 0.502 0.500
40.8002995 -37.3501852 -178.5652041 0.502 0.502 0.500
40.8002995 -36.2501852 -178.2752126 0.219 0.321 0.145
40.8002995 -36.0801853 -178.3551872 0.196 0.298 0.112
40.8002995 -34.3701877 -180.2151799 0.502 0.502 0.500
40.8002995 -33.6601883 -179.3752015 0.266 0.384 0.149
40.8002995 -33.3801880 -179.4351935 0.192 0.314 0.090
40.8002995 -31.6401869 -179.8052043 0.180 0.306 0.120
40.8102982 -36.2001881 -179.2851985 0.502 0.502 0.500
40.8202969 -38.1201841 -177.3751974 0.176 0.302 0.109
40.8202969 -34.8601863 -180.0051928 0.502 0.502 0.500
40.8303030 -40.7401845 -176.0351807 0.392 0.576 0.361
40.8303030 -31.0601890 -180.0452024 0.172 0.302 0.116
40.8403017 -32.9601876 -180.7151884 0.502 0.502 0.500
40.8503003 -41.4901897 -176.8451780 0.573 0.588 0.590
40.8503003 -34.9401906 -178.7651926 0.239 0.310 0.145
40.8902988 -32.8901857 -179.4251949 0.184 0.298 0.109
40.9402996 -40.2001888 -177.4951965 0.635 0.639 0.645
41.0202965 -32.3501863 -179.4251949 0.169 0.294 0.102
41.0503000 -39.4801870 -176.8451780 0.329 0.486 0.249
41.1103033 -32.2401859 -180.7151884 0.502 0.502 0.500
41.1302969 -40.8501849 -176.2052029 0.415 0.568 0.383
41.2202999 -34.2501886 -180.0651848 0.502 0.502 0.500
41.2303023 -32.3601887 -179.2751849 0.172 0.298 0.112
41.2502997 -36.2001881 -178.0951917 0.117 0.192 0.065
41.2802957 -41.4901897 -175.5551845 0.337 0.486 0.284
41.3303003 -36.9101875 -178.7851900 0.502 0.502 0.500
41.3803011 -34.2601836 -178.7751913 0.204 0.321 0.124
41.4002985 -31.7101851 -179.4151962 0.172 0.314 0.124
41.4303020 -41.3201861 -175.7851988 0.282 0.423 0.235
41.4303020 -41.0601832 -177.1751940 0.502 0.502 0.500
41.4303020 -41.0101898 -176.2052029 0.329 0.494 0.296
41.4303020 -40.3401814 -177.4452031 0.502 0.502 0.500
41.4303020 -40.2001888 -176.7452061 0.400 0.564 0.375
41.4303020 -40.0101840 -177.5552034 0.502 0.502 0.500
41.4303020 -39.9501882 -176.8151969 0.298 0.447 0.262
41.4303020 -38.7401879 -177.9752076 0.502 0.502 0.500
41.4303020 -38.4601913 -177.2052050 0.192 0.270 0.124
41.4303020 -37.9101858 -177.3951948 0.180 0.258 0.112
41.4303020 -37.8401875 -178.2851964 0.502 0.502 0.500
41.4303020 -37.3801887 -178.4451902 0.502 0.502 0.500
41.4303020 -36.9301885 -177.7751893 0.125 0.204 0.065
41.4303020 -36.8401855 -178.8351983 0.502 0.502 0.500
41.4303020 -36.2501852 -177.9752076 0.157 0.243 0.094
41.4303020 -36.1201875 -179.2051792 0.502 0.502 0.500
41.4303020 -36.0901877 -178.0551970 0.204 0.306 0.128
41.4303020 -34.8301865 -179.7351986 0.502 0.502 0.500
41.4303020 -34.7501859 -178.6752045 0.212 0.325 0.112
41.4303020 -34.3001857 -178.7251979 0.212 0.329 0.133
41.4303020 -33.7901860 -178.8052022 0.161 0.274 0.085
41.4303020 -33.6101875 -180.2051961 0.502 0.502 0.500
41.4303020 -33.5201882 -178.8652092 0.176 0.302 0.109
41.4303020 -32.9901837 -178.9551973 0.169 0.294 0.102
41.4303020 -32.7901877 -180.4051995 0.502 0.502 0.500
41.4303020 -32.1801864 -180.5551946 0.502 0.502 0.500
41.4303020 -32.0801884 -179.2552024 0.172 0.306 0.109
41.4303020 -31.5401852 -179.4651896 0.172 0.314 0.124
41.4303020 -31.3201882 -180.8051914 0.502 0.502 0.500
41.4303020 -31.0301874 -179.6551943 0.196 0.337 0.155
41.4403006 -38.9901884 -177.0851910 0.165 0.266 0.090
41.4403006 -35.6801860 -178.2951951 0.294 0.404 0.210
41.4403006 -35.5601832 -178.3651859 0.318 0.423 0.214
41.4403006 -35.4001857 -179.4952005 0.502 0.502 0.500
41.4403006 -34.2601836 -179.9551994 0.502 0.502 0.500
41.4403006 -33.9001901 -180.1051944 0.502 0.502 0.500
41.4403006 -31.7001864 -179.3951988 0.184 0.314 0.128
41.4502993 -40.1401855 -177.5051951 0.502 0.502 0.500
41.4502993 -39.6301895 -176.8451780 0.204 0.329 0.137
41.4502993 -39.3201858 -177.7751893 0.502 0.502 0.500
41.4502993 -38.2401869 -178.1452000 0.502 0.502 0.500
41.4502993 -37.5501849 -177.5752008 0.137 0.235 0.077
41.4603017 -31.5901861 -180.7151884 0.502 0.502 0.500
41.4903015 -35.5801880 -179.3951988 0.502 0.502 0.500
41.5003002 -36.9101875 -178.7952036 0.502 0.502 0.500
41.5402986 -33.6501859 -178.7751913 0.172 0.298 0.106
41.6002981 -34.9401906 -179.6052009 0.502 0.502 0.500
41.6303016 -37.5201888 -177.4751991 0.113 0.200 0.059
41.6802987 -31.0501866 -180.6752086 0.517 0.541 0.541
41.7902991 -38.6701897 -177.0952046 0.145 0.212 0.085
41.7902991 -33.6401872 -180.0251901 0.502 0.502 0.500
41.8103002 -36.8501879 -178.7251979 0.502 0.502 0.500
41.8203026 -32.9901837 -178.7551939 0.176 0.302 0.116
41.8903008 -39.4401848 -176.8151969 0.161 0.231 0.081
41.9203006 -35.5501845 -178.1352013 0.172 0.282 0.090
41.9302993 -31.1901867 -178.7751913 0.270 0.443 0.235
41.9703014 -32.9001844 -180.0751984 0.502 0.502 0.500
41.9803001 -33.6601883 -178.5252094 0.184 0.310 0.116
42.0102999 -34.9001847 -179.4251949 0.502 0.502 0.500
42.0702957 -32.3001854 -178.7651926 0.196 0.364 0.155
42.0803018 -41.4501876 -176.9951880 0.502 0.502 0.500
42.0803018 -41.0301909 -176.1552095 0.243 0.376 0.180
42.0803018 -40.7501906 -177.2251874 0.502 0.502 0.500
42.0803018 -40.3301865 -176.4352173 0.157 0.258 0.106
42.0803018 -39.8401879 -177.5151938 0.502 0.502 0.500
42.0803018 -39.4301862 -177.6551902 0.502 0.502 0.500
42.0803018 -38.4401865 -176.9751906 0.129 0.180 0.077
42.0803018 -38.2001884 -178.0551970 0.502 0.502 0.500
42.0803018 -38.1501876 -178.0751944 0.502 0.502 0.500
42.0803018 -37.9001833 -178.1551987 0.502 0.502 0.500
42.0803018 -37.4401882 -177.3552001 0.251 0.349 0.192
42.0803018 -37.1501893 -178.4751862 0.502 0.502 0.500
42.0803018 -36.6001837 -178.7052006 0.502 0.502 0.500
42.0803018 -36.4001878 -178.7851900 0.502 0.502 0.500
42.0803018 -36.2201855 -177.9551804 0.247 0.361 0.149
42.0803018 -36.2101868 -178.8551956 0.502 0.502 0.500
42.0803018 -35.5001874 -179.1452020 0.502 0.502 0.500
42.0803018 -34.8101892 -178.1551987 0.172 0.298 0.112
42.0803018 -34.2201889 -179.6851903 0.502 0.502 0.500
42.0803018 -33.7701887 -178.4351915 0.180 0.314 0.116
42.0803018 -33.2701877 -178.5652041 0.176 0.310 0.112
42.0803018 -32.9301879 -178.6351949 0.204 0.318 0.128
42.0803018 -32.3901847 -180.1152080 0.502 0.502 0.500
42.0803018 -32.1401879 -178.7551939 0.243 0.415 0.223
42.0803018 -32.0001878 -180.2252084 0.502 0.502 0.500
42.0803018 -31.8601876 -178.8451970 0.231 0.439 0.235
42.0803018 -31.7101851 -178.7151992 0.274 0.463 0.274
42.0803018 -31.6301845 -178.8052022 0.255 0.443 0.253
42.0803018 -31.0101863 -178.4951985 0.384 0.529 0.327
42.0803018 -30.9201851 -178.0651957 0.215 0.380 0.184
42.0803018 -30.7901856 -180.4251820 0.463 0.525 0.379
42.0903005 -41.3101837 -177.0351976 0.502 0.502 0.500
42.0903005 -40.8001877 -176.2751937 0.215 0.325 0.163
42.0903005 -40.1001908 -176.5452027 0.165 0.243 0.098
42.0903005 -40.0001854 -177.4652004 0.502 0.502 0.500
42.0903005 -39.4501872 -176.7351776 0.145 0.212 0.077
42.0903005 -38.9601849 -176.8552065 0.137 0.188 0.085
42.0903005 -37.9801877 -177.0551950 0.176 0.251 0.133
42.0903005 -37.0901860 -177.5552034 0.314 0.404 0.223
42.0903005 -36.6201885 -177.8351963 0.302 0.407 0.198
42.0903005 -34.7901881 -179.4451922 0.502 0.502 0.500
42.0903005 -32.7101871 -180.0452024 0.502 0.502 0.500
42.0903005 -31.5701850 -180.2951992 0.553 0.573 0.584
42.1002991 -35.5201885 -177.9952049 0.188 0.302 0.120
42.1102978 -34.9101871 -178.1052053 0.176 0.290 0.109
42.1102978 -33.1001878 -179.9551994 0.502 0.502 0.500
42.1603024 -34.9201895 -179.3852150 0.502 0.502 0.500
42.1603024 -32.3101878 -180.0751984 0.502 0.502 0.500
42.1803035 -32.6901861 -178.6351949 0.223 0.368 0.167
42.2002971 -31.0901850 -177.8652072 0.235 0.384 0.198
42.2203019 -38.6801884 -176.8351942 0.117 0.172 0.069
42.3802994 -31.6501856 -180.0552011 0.541 0.592 0.512
42.3802994 -31.0801864 -177.4751991 0.200 0.372 0.141
42.3903018 -34.2701860 -178.1252027 0.184 0.314 0.128
42.3903018 -31.7701846 -178.1352013 0.306 0.451 0.282
42.4003005 -31.0401879 -177.4351746 0.208 0.376 0.163
42.5103009 -40.7701880 -176.1752069 0.157 0.255 0.098
42.5202996 -36.2401903 -178.7751913 0.502 0.502 0.500
42.5502993 -36.7601849 -177.4851978 0.172 0.282 0.094
42.5502993 -32.3601887 -178.1052053 0.274 0.463 0.274
42.5603017 -32.0201889 -179.8352003 0.556 0.596 0.563
42.6203012 -33.5101858 -178.1352013 0.247 0.411 0.223
42.6403023 -36.2401903 -177.4452031 0.161 0.274 0.094
42.6602960 -31.8001844 -177.3452014 0.196 0.380 0.167
42.7302979 -41.1201864 -177.0052016 0.502 0.502 0.500
42.7302979 -40.3301865 -177.2651821 0.502 0.502 0.500
42.7302979 -40.3301865 -176.2751937 0.133 0.212 0.065
42.7302979 -40.0601849 -177.3452014 0.502 0.502 0.500
42.7302979 -39.6501869 -176.4352173 0.141 0.204 0.090
42.7302979 -39.2601863 -176.5052080 0.165 0.227 0.120
42.7302979 -38.7201831 -177.6852161 0.502 0.502 0.500
42.7302979 -38.6201851 -176.7552048 0.102 0.165 0.059
42.7302979 -38.1001905 -177.1251857 0.314 0.419 0.210
42.7302979 -37.8701910 -177.8652072 0.502 0.502 0.500
42.7302979 -37.4101885 -178.0651957 0.502 0.502 0.500
42.7302979 -36.4801846 -178.5552055 0.502 0.502 0.500
42.7302979 -36.2001881 -177.3951948 0.165 0.278 0.106
42.7302979 -35.6301852 -177.5651872 0.176 0.302 0.116
42.7302979 -35.0401886 -177.7151823 0.184 0.314 0.128
42.7302979 -34.9201895 -177.7451932 0.196 0.329 0.133
42.7302979 -34.5901884 -179.3451905 0.502 0.502 0.500
42.7302979 -34.1301896 -177.9451966 0.227 0.376 0.184
42.7302979 -33.3801880 -178.0052036 0.255 0.443 0.245
42.7302979 -33.1901871 -179.5652062 0.502 0.502 0.500
42.7302979 -32.5901881 -177.8151840 0.266 0.463 0.262
42.7302979 -32.2801881 -177.6251942 0.258 0.447 0.249
42.7302979 -32.0401862 -177.3552001 0.204 0.400 0.167
42.7302979 -32.0301875 -179.6451807 0.545 0.592 0.498
42.7302979 -31.7101851 -177.0851910 0.196 0.364 0.155
42.7302979 -31.0201850 -179.6451807 0.388 0.482 0.284
42.7302979 -30.9801865 -177.0351976 0.192 0.349 0.145
42.7403040 -40.9001894 -176.1251986 0.149 0.247 0.081
42.7403040 -39.3301882 -177.5251925 0.502 0.502 0.500
42.7403040 -38.4301879 -176.8852025 0.165 0.231 0.106
42.7403040 -37.1501893 -178.1951934 0.502 0.502 0.500
42.7403040 -36.6401859 -177.3152053 0.176 0.282 0.112
42.7403040 -36.1501835 -178.7151992 0.502 0.502 0.500
42.7403040 -35.5601832 -179.0251881 0.502 0.502 0.500
42.7403040 -32.8101888 -179.6352118 0.502 0.502 0.500
42.7403040 -31.1201867 -179.6451807 0.400 0.494 0.288
42.7503027 -37.1701866 -177.2951931 0.165 0.278 0.090
42.7503027 -34.2401862 -179.4351935 0.502 0.502 0.500
42.7603014 -35.9801874 -178.7952036 0.502 0.502 0.500
42.7603014 -31.6701867 -179.6551943 0.478 0.588 0.357
42.7703001 -39.4701846 -177.4751991 0.502 0.502 0.500
42.7902974 -40.5601896 -176.1752069 0.125 0.223 0.069
42.7902974 -34.2401862 -179.4151962 0.502 0.502 0.500
42.7902974 -32.3901847 -177.4851978 0.266 0.463 0.262
42.8403020 -31.3801877 -176.8251956 0.180 0.337 0.141
42.8503007 -30.8401864 -176.8351942 0.282 0.400 0.249
42.8703018 -33.5801840 -179.4051975 0.502 0.502 0.500
42.8803042 -31.8101868 -176.8151969 0.208 0.357 0.155
42.9002978 -31.1901867 -179.4151962 0.396 0.506 0.274
42.9102965 -35.5301872 -177.4851978 0.184 0.310 0.124
42.9403037 -33.0201872 -177.4052083 0.266 0.463 0.262
42.9603010 -32.2601870 -179.4251949 0.545 0.592 0.512
42.9702997 -32.5601846 -179.4251949 0.576 0.592 0.602
43.0503003 -40.1101857 -176.1752069 0.157 0.231 0.112
43.0503003 -33.6601883 -177.4452031 0.266 0.474 0.270
43.0602990 -32.5601846 -176.8251956 0.204 0.404 0.145
43.1302972 -34.4201885 -177.4851978 0.274 0.470 0.270
43.1402996 -41.3801856 -176.8151969 0.502 0.502 0.500
43.1402996 -33.5301906 -177.1551967 0.274 0.470 0.270
43.1902967 -36.8901864 -178.0851930 0.502 0.502 0.500
43.2402976 -35.5901867 -178.7351966 0.521 0.545 0.543
43.2402976 -33.1501886 -176.8151969 0.262 0.474 0.231
43.2502963 -37.7001874 -176.8351942 0.172 0.274 0.128
43.2703011 -30.7101887 -178.7451953 0.357 0.486 0.214
43.2802998 -37.3801887 -176.8351942 0.172 0.282 0.120
43.2902984 -33.7101854 -176.8251956 0.239 0.439 0.219
43.3202982 -31.7301862 -176.1651933 0.282 0.474 0.253
43.3303043 -31.6701867 -176.1651933 0.318 0.494 0.278
43.3503017 -31.3401856 -178.7351966 0.376 0.506 0.235
43.3802977 -41.5001884 -175.7951975 0.133 0.215 0.085
43.3802977 -41.4801873 -176.6751856 0.502 0.502 0.500
43.3802977 -41.2701853 -176.7252088 0.502 0.502 0.500
43.3802977 -41.2501879 -175.8452058 0.133 0.208 0.081
43.3802977 -40.7201834 -175.8751869 0.133 0.208 0.081
43.3802977 -39.7401862 -177.1051884 0.502 0.502 0.500
43.3802977 -39.6001860 -176.3951927 0.208 0.270 0.124
43.3802977 -39.4401848 -176.4851958 0.290 0.368 0.176
43.3802977 -38.7701876 -177.3452014 0.502 0.502 0.500
43.3802977 -38.6001840 -176.7252088 0.223 0.318 0.176
43.3802977 -38.0901881 -177.4652004 0.502 0.502 0.500
43.3802977 -37.9601866 -176.7151952 0.180 0.290 0.141
43.3802977 -37.4901891 -176.7552048 0.172 0.282 0.124
43.3802977 -37.4501869 -177.6852161 0.502 0.502 0.500
43.3802977 -36.8801840 -177.9851764 0.502 0.502 0.500
43.3802977 -36.6201885 -176.8852025 0.169 0.290 0.124
43.3802977 -36.5201868 -178.1751961 0.502 0.502 0.500
43.3802977 -36.0101834 -178.4451902 0.502 0.502 0.500
43.3802977 -35.6201865 -177.2352010 0.153 0.310 0.112
