ply
format ascii 1.0
comment Author: CloudCompare (TELECOM PARISTECH/EDF R&D)
obj_info Generated by CloudCompare!
element vertex 772
property float x
property float y
property float z
end_header
-146.268 149.509 14.0606 
-8.87612 22.3846 -49.337 
11.4274 8.76446 -62.0397 
-21.9119 37.2897 -46.4384 
-0.597403 -15.4079 -69.695 
3.13136 17.4889 -50.4915 
13.4541 0.755067 -67.9772 
-16.544 34.5062 -45.5728 
3.47178 -29.3881 -75.6924 
-38.4212 44.7893 -67.9882 
-14.5726 26.6134 -49.7684 
-20.4246 28.8129 -52.0664 
-30.622 54.5691 -35.8088 
-12.458 10.7419 -59.9468 
-8.36915 16.79 -52.0399 
-0.374052 32.781 -40.0713 
-20.7551 48.0744 -35.3263 
-62.4141 122.671 -17.6953 
-40.5877 50.5891 -63.7707 
-4.15523 21.0667 -46.6058 
-102.486 138.64 -8.11089 
-2.63558 4.35443 -57.4197 
9.13108 15.4038 -56.5866 
-8.42654 47.3884 -34.6558 
-10.4935 -1.51619 -65.3472 
-42.4315 72.7631 -23.9321 
-6.6383 49.9608 -31.3879 
7.54448 -21.2856 -71.8948 
-24.2524 59.4613 -24.5752 
-18.6032 60.3085 -21.6087 
-58.6351 116.831 -20.3516 
3.65831 6.65179 -57.6936 
-12.3114 51.5841 -30.6331 
-8.41747 32.7626 -44.0153 
-64.5386 110.724 -18.029 
1.46031 -1.00686 -60.3722 
-20.397 55.1684 -28.3613 
-62.0261 104.807 -19.3391 
-62.4662 132.729 -15.9371 
1.40727 12.8708 -54.1721 
3.35136 -4.7857 -62.7999 
-102.332 122.845 12.2051 
-68.584 124.726 -16.3766 
-9.97874 7.34085 -60.8244 
-3.16908 -5.82268 -65.1423 
5.59085 24.2752 -43.4135 
8.07198 -9.70735 -66.9878 
-60.8039 108.774 -20.5866 
-37.8276 41.6309 -70.8078 
-30.3265 66.9606 -20.1106 
-26.4672 64.726 -19.9207 
-2.38705 24.8112 -44.1367 
-12.3703 55.063 -26.1592 
1.81067 29.0784 -40.6422 
-26.397 50.8183 -36.0084 
-8.43422 40.8299 -40.0452 
-26.3228 40.9692 -46.2578 
-16.4973 16.6319 -57.702 
13.8421 6.62341 -65.7353 
3.69768 -35.0141 -78.3916 
-48.5101 100.727 -31.9506 
-4.47334 -17.3614 -71.602 
-66.4559 130.764 -16.1068 
-26.2682 57.0949 -28.1977 
-44.1873 64.9036 -56.3252 
-14.4462 46.4169 -35.5495 
-12.2298 20.9435 -52.1956 
-20.2089 63.3074 -18.2508 
1.35327 -23.5407 -73.4164 
-54.6994 110.808 -24.2747 
-130.716 144.25 18.0428 
-14.5949 30.4419 -47.4348 
-6.46585 -13.2256 -70.0307 
11.6152 -19.3061 -73.8419 
-16.3667 39.1782 -42.529 
-66.8441 114.672 -16.5402 
10.6714 -4.93296 -66.8773 
-22.65 52.3195 -31.5617 
-6.72962 0.439322 -63.5327 
-20.8485 39.894 -43.0814 
-68.534 118.716 -16.1579 
-24.0761 43.1496 -42.3154 
-8.96853 12.3828 -55.4943 
5.63544 -17.4439 -69.5722 
-36.2424 57.2087 -38.5617 
-28.9186 50.2824 -39.576 
-30.5514 60.6387 -27.8451 
-8.48448 -7.37564 -67.6796 
7.05265 -0.953201 -62.6641 
-4.59937 28.6525 -43.6824 
-16.5849 42.4153 -39.6269 
-2.22937 10.5194 -53.4539 
-4.3924 45.0679 -36.4191 
-22.9173 45.8274 -38.979 
-0.395119 18.5144 -47.7102 
-50.1357 71.1314 -56.74 
3.46067 21.0063 -46.1904 
3.64234 32.8319 -38.1431 
1.17234 -19.6196 -71.3174 
7.7113 -29.4551 -75.5162 
-46.7927 62.4794 -59.4378 
-4.88805 36.3196 -40.9781 
-28.7782 56.3149 -31.5734 
-37.8397 47.5722 -64.6819 
-28.0451 61.3772 -24.5219 
11.3982 12.8284 -60.1093 
-12.4384 42.1562 -39.2955 
-34.2633 69.162 -20.1904 
-16.7925 24.3862 -53.4481 
-11.3518 16.0918 -55.1313 
-6.50448 -3.34037 -65.8021 
-6.67895 52.0672 -27.5757 
-72.7365 118.6 -14.5545 
9.01644 2.90017 -62.556 
-2.7664 -9.59985 -67.4498 
1.46317 -9.64112 -65.2801 
-19.2458 31.9227 -49.0375 
-30.4228 38.8238 -69.9776 
-72.2631 126.781 -15.2676 
5.9594 12.2838 -57.0987 
-64.4641 126.887 -16.6589 
5.52714 -39.2853 -79.8905 
13.1214 -29.1723 -80.1957 
-58.5456 104.723 -22.0579 
-26.2481 37.1725 -48.5805 
-16.4685 50.7736 -31.9766 
-32.3288 58.8787 -32.0329 
-26.7657 46.4434 -41.6872 
-5.92475 7.34117 -56.6908 
-0.85092 15.4983 -50.588 
-36.1444 73.3584 -14.2228 
-35.9062 63.3333 -30.2723 
1.45571 2.93511 -58.299 
1.44983 36.69 -37.7842 
-16.5047 56.4916 -25.7287 
-8.09591 26.9911 -46.4306 
11.3823 19.3201 -52.2614 
-58.3031 112.692 -21.6042 
-2.36902 40.8568 -38.2274 
11.7288 -23.3642 -75.7205 
-44.5 80.6857 2.06787 
-45.935 94.7845 -37.8433 
7.45013 6.7536 -60.0552 
-6.57657 4.64892 -59.8321 
-36.4565 60.7407 -35.9384 
-107.958 127.172 14.5132 
-24.32 33.063 -50.4867 
-46.2828 52.9547 -66.1202 
-32.1097 49.3274 -42.6894 
12.8563 -7.08027 -70.3924 
-12.3053 35.0025 -44.435 
-108.366 143.008 -9.55816 
5.45921 2.79043 -60.0724 
9.50592 22.8556 -46.0175 
-32.3312 52.9341 -40.1772 
-40.5314 54.6635 -59.8438 
-30.8093 64.338 -23.5565 
-58.4034 124.679 -17.7621 
-32.4809 70.6987 -15.9086 
-42.2753 58.8998 -58.1876 
9.68903 -13.3707 -69.689 
-34.5732 42.5774 -67.7621 
-14.5061 58.6446 -21.8787 
-18.4643 20.7372 -55.9416 
7.53429 28.6231 -39.7773 
-4.0963 1.09873 -60.4095 
-2.42129 -25.0368 -74.6391 
5.73473 16.3503 -53.6063 
-32.5651 36.3952 -75.7347 
-26.1739 67.3433 -16.3001 
-44.0402 80.8319 -35.7446 
-4.19973 17.2262 -48.6917 
-104.89 126.384 11.7611 
-66.2454 102.78 -15.6414 
-50.2886 82.9354 -11.9616 
-10.4506 2.5708 -63.6113 
5.64178 -13.4033 -67.638 
-53.775 118.551 -23.2958 
-38.2043 71.209 -20.1403 
7.23633 -4.99945 -64.5277 
-42.3503 76.9434 -14.0327 
-42.7695 46.1325 -69.1432 
-6.11178 12.9565 -52.2823 
-132.075 147.723 -5.30598 
-52.016 104.733 -27.4661 
-16.5074 12.5747 -59.6468 
-34.3621 39.0387 -72.1167 
-30.1685 45.3197 -44.7013 
7.34649 19.318 -50.318 
10.0638 -35.5707 -79.1814 
-104.42 120.765 16.152 
-72.4551 138.735 -15.8789 
7.62523 -25.3619 -73.696 
-110.214 139.031 -5.60718 
-96.7243 114.471 13.7312 
-106.865 135.871 -4.4594 
12.9902 -11.145 -72.2976 
-76.4838 116.72 -11.9597 
-59.2335 98.6737 -20.7845 
-52.2757 114.706 -25.7505 
11.5553 -39.2799 -81.8994 
-8.65665 8.70175 -80.0577 
-38.5097 64.6762 -33.8699 
-98.8243 126.25 -0.18687 
-6.12666 -21.1161 -74.0211 
-40.0666 63.0091 -54.3935 
-76.3965 126.756 -13.747 
-37.0409 66.5072 -43.9552 
-46.1492 57.1671 -62.5417 
1.28624 46.5278 -35.1713 
-48.4035 76.771 -54.0392 
-10.9111 2.62734 -73.9622 
-62.0817 114.664 -19.2912 
-36.6237 68.4931 -23.7782 
-58.4697 130.744 -16.3648 
-37.9224 59.0659 -54.5623 
-78.5071 108.683 -3.94453 
-54.1987 98.7047 -25.5927 
-34.4167 48.7819 -59.9682 
-48.9452 98.5556 -45.5294 
-28.8142 34.0293 -77.5326 
-40.1414 66.9184 -52.2628 
-87.1978 119.986 -6.43301 
-18.0527 24.8909 -63.8743 
-44.5003 70.6879 -31.8798 
-72.1251 112.885 -13.307 
-49.637 114.846 -31.7642 
-2.46892 48.8775 -32.008 
-76.1322 111.139 -11.8519 
-46.3647 68.7899 -56.0743 
-114.663 132.513 15.933 
-30.9189 42.0971 -65.4272 
-100.589 118.62 13.9564 
13.1205 -15.1705 -74.1992 
-70.4381 132.718 -15.6819 
7.26925 4.82469 -70.2816 
-23.0712 34.357 -63.9276 
-55.1689 102.76 -24.5959 
-98.6469 120.573 9.93223 
-67.8797 99.3527 -7.73749 
-62.5788 100.706 -18.0687 
-52.5727 122.766 -24.0239 
-22.8364 61.8979 -21.2047 
-49.0712 96.7939 -30.7145 
13.5468 16.706 -57.9026 
-14.5154 60.6394 -17.8709 
-134.748 145.99 14.1008 
-50.034 110.73 -29.6951 
-52.3982 84.7892 -21.9461 
-10.1106 -1.18768 -71.9099 
-26.1988 69.1816 -9.98175 
-14.4073 6.83518 -62.1198 
-28.0655 39.2226 -66.3402 
-170.497 160.562 -10.0384 
-74.6409 130.709 -14.6134 
5.44945 -11.2682 -92.1103 
-32.1353 45.2154 -62.2794 
-33.9641 58.8804 -43.79 
-40.8685 68.3034 -31.5564 
-37.0528 54.2626 -57.2393 
-55.0173 122.903 -20.533 
-37.8935 51.3543 -60.4744 
-49.7731 89.0179 -50.6383 
-74.4336 96.8034 14.1193 
-158.442 154.825 -1.90645 
-42.2973 74.9323 -18.0006 
-96.1577 116.933 10.3932 
-8.51649 54.6214 -23.873 
-34.1815 65.1085 -26.2201 
-71.3534 101.91 -4.17809 
-66.4766 136.717 -16.0934 
-76.4335 140.577 -16.1839 
-28.7564 36.131 -73.593 
-101.736 125.359 8.70515 
-67.871 106.794 -15.0699 
-33.9845 51.1406 -56.3144 
-76.494 134.658 -14.7064 
-38.2672 66.9524 -28.0422 
-74.5543 122.75 -14.1508 
-55.513 95.1206 -23.0913 
-64.4616 118.729 -17.9135 
-52.6459 94.6773 -26.1682 
-136.407 154.876 -21.9589 
14.4996 12.0647 -63.0832 
-50.9713 100.641 -28.3781 
-176.496 162.909 -13.7432 
-47.7355 85.101 -50.5746 
-142.217 157.434 -17.8714 
-42.2195 70.8264 -52.1315 
-56.7935 88.2243 8.10329 
-190.668 161.276 -19.8061 
-184.374 159.206 0.029082 
-81.0698 103.916 7.72528 
-50.0815 67.0963 -58.6866 
-21.5533 31.6801 -70.1625 
-46.2369 72.871 -54.3134 
-178.429 160.258 -10.1673 
-40.0643 77.4306 -8.13299 
-8.06523 -9.17281 -73.8842 
-176.476 166.93 -17.739 
-50.5534 80.6659 -53.7327 
-117.092 135.95 13.7592 
-46.63 80.6428 -51.6452 
-62.7306 92.3843 8.01769 
-44.7894 88.6654 -37.9796 
-47.2516 102.502 -39.7651 
-46.6463 82.4345 -3.9043 
-74.5908 98.5346 9.95954 
-20.2782 28.9518 -75.9582 
13.1226 -31.3089 -85.8174 
-15.1402 16.5544 -65.9458 
-228.599 151.147 -19.8043 
-80.2768 114.961 -9.92978 
-2.00883 0.771647 -87.5862 
-14.7948 22.5668 -77.9416 
-17.3643 25.9767 -77.9501 
-49.7396 81.3648 -19.8685 
-94.6918 120.488 3.95918 
-180.507 158.477 -1.90269 
-111.978 135.396 4.28716 
-32.6042 34.1095 -79.5436 
-134.677 146.109 8.01896 
-91.0158 122.174 -4.45864 
-128.177 143.328 12.1202 
-6.66853 -15.3216 -77.9282 
-200.382 156.289 -10.0059 
-82.9274 108.307 3.71127 
-15.7096 23.1021 -73.7837 
-26.7414 36.3425 -69.7598 
-156.586 152.344 10.0721 
-66.6452 100.597 -12.0299 
-3.04806 -33.4155 -83.8695 
-11.5568 17.1852 -79.6435 
-29.9489 45.1726 -58.1433 
-28.7423 32.0449 -81.6121 
-24.6364 30.3631 -81.7972 
-46.0626 75.344 -28.5954 
-48.1306 108.781 -35.8727 
-5.12032 12.3739 -88.3196 
-120.447 148.855 -25.9593 
-42.2578 80.778 -41.9233 
-36.8039 76.2859 -5.80342 
-58.4989 90.7023 -13.9332 
-60.0429 91.1861 2.15275 
-78.2998 104.929 2.2269 
-22.6224 66.4441 -13.8388 
-46.608 78.5671 -17.8892 
-19.6674 29.1232 -65.8178 
-34.802 74.0503 -9.73442 
-72.1682 101.096 0.23059 
-21.794 25.5767 -54.8229 
-244.167 144.083 -13.778 
-61.8044 93.4401 -9.78198 
-126.433 150.824 -11.867 
-56.4533 88.746 -5.92485 
-86.9817 116.187 -2.28971 
-34.6325 54.6155 -53.7874 
-162.711 153.938 12.1022 
-92.6052 120.593 -0.008455 
-24.6403 32.4632 -75.8185 
-160.451 158.846 -9.84167 
-86.2278 106.984 10.2591 
-2.38727 -31.0203 -76.695 
-2.29324 -37.2447 -81.907 
-243.984 144 -20.0258 
1.8956 -15.2415 -89.632 
-0.96396 -3.40421 -88.3479 
-268.981 125.689 -20.4605 
-56.6062 88.5628 0.052524 
-39.0309 70.4718 -40.109 
1.81001 40.8133 -36.5859 
-59.6107 93.5799 -18.0151 
-138.287 147.274 10.1038 
-128.387 152.965 -17.9862 
-110.892 136.16 -0.127182 
-270.6 130.957 -16.7471 
-48.85 94.5053 -47.5778 
-9.86593 12.856 -79.6487 
12.866 -35.1451 -82.2745 
-29.7228 47.3785 -54.3952 
-9.0289 -5.42541 -71.9531 
-18.5514 64.4694 -13.8131 
-47.8289 104.745 -33.5796 
-43.2657 53.8645 -62.9441 
-46.5881 80.5196 -11.8239 
13.2897 -25.3109 -83.8467 
9.53973 25.3497 -42.3868 
-172.475 156.692 12.078 
-61.9618 93.3223 -1.93339 
-78.3143 120.813 -11.7039 
-28.9105 69.848 -13.6124 
-56.9603 90.2823 -18.0727 
-10.2776 57.0278 -20.0558 
-74.3193 106.87 -7.83039 
-122.846 145.797 -6.91087 
-26.3762 42.7816 -53.9422 
-200.738 157.427 -23.9532 
-26.1494 38.9457 -61.9928 
-28.9235 42.3285 -61.7553 
-180.376 159.002 8.04049 
-94.3563 124.852 -3.81945 
-184.635 160.114 6.18388 
-12.774 8.6474 -67.9363 
-47.0787 78.2339 -23.8768 
-132.651 152.256 -25.816 
-8.16174 17.0176 -89.8296 
-78.787 100.292 11.8317 
-172.482 165.189 -15.4486 
-35.2548 60.2964 -49.6627 
-122.648 140.415 11.9924 
-43.0947 74.6145 -34.2892 
-66.9883 95.8547 5.85509 
-262.164 134.338 -15.5644 
-38.8689 70.5541 -45.8438 
-20.8075 30.5477 -61.8951 
-41.6003 75.1934 -48.2721 
-46.4857 94.7214 -43.9151 
-18.0173 27.0239 -71.9281 
-128.412 150.895 -25.9543 
-178.466 158.653 -5.93368 
-44.7 76.598 -51.6667 
-32.3649 54.7826 -49.9722 
-18.2583 22.764 -59.8245 
-206.511 155.039 -7.94305 
-8.53318 -5.28409 -77.9347 
-32.3222 72.9477 -5.91741 
-146.445 150.81 4.09231 
-65.1717 95.9544 -1.93561 
-31.9956 54.9112 -45.8529 
-19.8697 27.6296 -82.0952 
-44.7482 88.6579 -43.8375 
-3.83408 -29.0758 -81.9674 
-178.291 159.132 11.9961 
-182.362 162.367 -14.1415 
-16.8628 22.6049 -67.9647 
-53.5951 85.672 -12.0015 
-166.366 155.329 4.16331 
-14.3028 14.7813 -69.9203 
-214.348 154.004 -21.7664 
-44.4765 82.7238 -47.9172 
-102.808 143.78 -12.7236 
-46.8534 98.6832 -36.0415 
-188.493 160.588 4.10981 
-152.367 151.12 10.1033 
-48.2198 83.1432 2.13538 
-148.639 153.863 -6.60642 
-24.7677 38.527 -57.8194 
-232.646 149.228 -17.8045 
-36.7076 64.6476 -47.8464 
-14.3642 22.8108 -83.9109 
-4.76549 -23.3196 -84.0076 
-20.469 28.727 -57.9229 
-52.9282 86.0609 -7.70527 
-230.601 149.375 -9.99438 
-50.3038 80.91 -27.9592 
-11.7347 4.93112 -69.8961 
-40.4032 74.7517 -41.9164 
-92.2448 112.93 10.2601 
-226.465 150.726 -15.9229 
-118.729 143.93 -6.80187 
-68.713 98.4233 0.007861 
-17.9413 25.4964 -86.0643 
-168.527 164.067 -14.5778 
-41.1893 70.154 -27.777 
-126.501 144.64 -1.94629 
-96.8191 134.286 -8.80247 
-174.31 157.178 6.08192 
-101.99 131.388 -3.69106 
-44.6602 80.4435 -7.86982 
-150.66 151.937 3.90186 
-152.91 161.816 -18.153 
-4.70473 -25.3131 -79.8928 
-42.8904 80.1111 -1.9327 
-2.03349 -39.1807 -87.8859 
-188.558 160.968 -15.8469 
-97.8919 123.403 4.37074 
-30.6192 50.6224 -51.8279 
-130.42 144.846 6.09064 
-50.4459 84.7651 -1.91793 
-224.396 152.434 -21.9736 
-49.8799 90.8757 -29.5115 
-148.528 150.473 8.02676 
-42.1262 76.8533 -37.8021 
-204.666 155.546 -11.69 
-105.987 129.256 8.28636 
-6.51928 -1.27084 -81.961 
-22.1772 32.8275 -55.8397 
-124.342 151.288 -20.0741 
-48.372 82.8739 -7.95384 
-80.5976 108.586 -0.007225 
-55.8821 87.4925 4.14664 
-276.003 119.951 -23.4652 
-46.8078 98.6153 -41.8013 
-46.7969 92.6937 -34.0879 
-28.0472 46.9075 -49.9293 
-14.5468 12.7167 -63.9502 
-16.5459 18.6999 -61.9565 
-64.5342 96.6674 -9.94608 
-170.678 156.039 8.07224 
-144.647 154.023 -8.38651 
-52.624 84.5756 -15.9201 
-5.98168 -17.1902 -81.8489 
-188.444 159.015 -2.00992 
-46.69 88.6366 -47.7525 
-8.00887 12.941 -83.6992 
-166.396 154.971 10.0689 
-238.181 148.27 -22.0373 
-1.1995 -43.3963 -81.9635 
-124.451 140.748 16.0817 
-13.0739 10.6047 -72.0268 
-62.3196 96.8522 -15.9181 
-57.8227 89.3957 -9.87277 
-115.916 137.57 6.26539 
-55.2254 87.973 -21.6024 
-30.8823 71.8731 -9.73645 
-11.2679 10.6425 -76.4109 
-3.85948 -27.113 -85.6783 
-118.702 138.366 9.99887 
-45.454 84.4973 -34.4771 
-42.1833 78.8628 -46.0032 
-192.481 160.506 2.14138 
-40.9366 70.598 -36.1867 
-7.65016 -9.13933 -79.6945 
-64.0902 95.1055 -5.89406 
-38.4037 76.807 -1.90786 
-22.6651 28.3385 -85.8292 
-192.376 158.144 -10.1273 
-72.0837 107.115 -11.8139 
-10.037 17.0391 -83.7309 
-138.247 147.273 16.0627 
-108.99 130.143 11.7525 
-118.415 140.844 -1.88668 
-59.933 91.3941 -5.97971 
-14.2696 18.782 -73.8335 
-11.9217 6.85034 -73.7658 
-46.2516 80.7854 -31.7914 
-74.8074 104.34 -2.08868 
-89.8428 115.32 4.4197 
-9.93635 4.79606 -77.6204 
-40.8736 78.1639 1.97324 
-212.479 154.769 -17.9188 
-218.388 152.477 -13.9728 
-64.3575 94.868 2.09786 
-106.582 132.597 -0.000514 
-81.8459 113.25 -5.37018 
-138.226 149.44 -3.81268 
-186.644 163.117 -19.7964 
-114.41 138.835 -1.88786 
-136.813 147.919 1.93786 
0.899962 -39.1203 -92.8186 
-200.617 157.423 -2.12285 
-142.33 149.183 6.16578 
-87.829 111.352 6.55233 
-36.7413 62.6764 -40.0588 
-252.976 139.682 -14.2101 
-94.489 146.537 -19.9903 
-43.5707 84.947 -39.7654 
-84.1639 113.027 -1.71685 
-148.617 152.097 -0.037758 
-110.271 132.974 8.18472 
-196.36 158.303 -14.0109 
-220.668 153.401 -1.94184 
-118.566 134.622 18.0095 
-12.2479 20.9491 -87.8871 
-146.377 158.954 -17.9109 
-2.55012 -31.2769 -87.9666 
-102.762 128.358 1.93638 
-12.2817 14.7591 -75.8177 
-122.425 142.823 -1.89441 
-122.128 141.44 4.18424 
-28.5512 70.6181 -5.93288 
-93.0797 116.197 7.61928 
-162.648 153.988 7.9752 
-126.31 143.073 6.12902 
-112.349 132.878 12.1579 
-48.7482 112.663 -37.889 
-248.616 140.954 -23.9124 
-250.006 140.006 -17.8835 
-50.3669 86.7539 -27.8396 
-86.235 112.956 2.17707 
-130.578 152.301 -12.1819 
-208.493 154.909 -21.9629 
-36.7644 37.9181 -75.4983 
-69.9411 103.115 -9.63949 
-92.4087 143.062 -15.5684 
-158.347 153.325 13.947 
-156.316 153.654 2.27218 
-98.5389 128.622 -3.97185 
-92.1671 125.073 -7.78596 
-238.51 146.811 -17.8967 
-170.485 156.644 2.06162 
-70.6023 98.4913 4.0154 
-47.7479 86.8877 -31.4047 
-132.537 146.527 0.040778 
-216.472 152.751 -7.92287 
-82.3735 102.837 12.1362 
-142.677 150.069 1.96495 
-186.458 158.822 -5.92356 
-116.411 149.108 -23.9473 
-253.026 137.441 -20.233 
-74.3363 100.913 4.15927 
-204.589 157.28 -0.073559 
-152.16 151.653 15.7868 
-150.467 162.724 -23.9238 
-144.256 151.529 -3.80588 
-46.0691 49.354 -68.508 
-118.576 150.301 -17.9175 
-82.2096 124.877 -11.3643 
-144.355 149.124 10.123 
-134.44 154.809 -17.9322 
13.8951 -3.24874 -75.9924 
-152.306 153.313 -1.83133 
-48.9928 106.537 -41.6301 
-5.77379 4.9678 -83.477 
-106.373 130.828 4.10236 
-178.56 158.315 4.06433 
-258.383 134.6 -17.8305 
-248.899 141.575 -14.1339 
-118.162 147.629 -11.2655 
-95.8316 123.425 0.472241 
-48.8811 102.578 -43.6532 
-52.1513 85.2845 4.0901 
-3.95222 -13.3005 -85.3007 
-202.584 157.14 -19.9409 
-106.451 146.787 -15.898 
-128.521 144.581 2.05513 
-156.471 156.688 -7.94958 
-120.946 138.118 15.832 
-84.4709 116.723 -5.92717 
-120.588 150.12 -21.79 
-208.541 155.101 -4.0132 
-158.363 153.223 6.16128 
-84.4782 118.713 -9.9256 
-86.2052 130.934 -11.1911 
-200.652 157.468 -15.8292 
-96.7925 143.732 -14.876 
-130.543 152.521 -21.8503 
-116.388 138.875 2.11344 
-222.535 151.393 -9.96966 
-238.554 147.065 -9.96189 
-152.655 160.084 -14.3437 
-70.3368 96.9401 8.15194 
-234.286 148.109 -13.9793 
-23.7996 36.9791 -53.8997 
-114.491 140.684 -5.97073 
-214.604 153.258 -11.858 
-84.3554 143.104 -17.3345 
-51.1656 118.683 -28.1649 
-1.77942 -35.2463 -89.5485 
-188.664 163.282 -23.7523 
-78.0183 111.118 -7.55138 
-162.287 161.529 -13.322 
-138.327 155.236 -13.7285 
-142.302 149.066 16.0634 
-88.2915 141.208 -15.1908 
-90.7424 138.259 -12.7126 
-112.295 147.328 -13.5518 
-2.13117 6.81157 -89.6005 
-166.398 157.557 -7.15415 
-89.5353 109.661 10.8034 
-260.229 130.393 -21.6002 
-66.7424 94.2233 9.86423 
-120.637 150.095 -14.1513 
-82.2554 132.958 -13.3385 
-194.266 160.187 -21.9739 
-34.817 74.2603 -2.05922 
-276.292 124.443 -17.6119 
-86.3474 136.918 -13.5381 
-198.399 158.501 -19.9202 
-92.6291 134.442 -10.4788 
-2.44997 -23.273 -87.9057 
-174.422 169.87 -20.7173 
-230.701 151.528 -23.6232 
-264.391 130.57 -17.7992 
-222.428 152.189 -5.82722 
-158.29 163.504 -17.5532 
-136.468 152.722 -9.926 
-80.1079 128.88 -13.1307 
-160.54 156.406 -6.14274 
-220.56 153.208 -19.8626 
-5.67493 8.98404 -85.3593 
-4.18881 -19.2949 -85.6895 
-210.346 154.16 -9.91778 
-256.078 134.239 -21.6342 
-186.338 160.283 -12.1392 
-5.70102 -7.32743 -83.1489 
-180.568 165.026 -17.7607 
-198.533 157.009 -5.97986 
-160.488 154.59 2.04888 
-88.1362 124.788 -9.11681 
-150.47 156.714 -9.9334 
-196.45 158.66 -1.90102 
-182.848 165.559 -21.6659 
-98.39 140.906 -11.6642 
-156.666 159.89 -12.4809 
-208.579 155.121 -13.8627 
-166.408 161.193 -11.5771 
-226.521 150.938 -7.96388 
-144.581 158.467 -21.9274 
-128.466 148.727 -7.92279 
-178.786 167.501 -21.6388 
-192.648 159.6 -15.7426 
-140.497 152.63 -7.98876 
-158.182 165.408 -21.5808 
-206.323 156.155 -17.9422 
-166.564 156.17 -0.031005 
-272.306 122.387 -21.5453 
-222.279 151.944 -16.1145 
-168.417 166.99 -17.6962 
-100.487 146.588 -18.0042 
-142.679 155.917 -12.3192 
-94.5794 130.627 -8.23108 
5.61659 -33.3199 -93.6149 
-198.648 159.707 1.80086 
-82.3588 138.946 -15.3504 
-94.1829 111.01 14.3406 
-110.499 148.429 -19.9421 
-90.2272 128.949 -9.20058 
-278.414 120.66 -19.8627 
-258.228 138.302 -13.6146 
-264.486 126.762 -21.9601 
-164.486 166.679 -19.9612 
-88.6626 106.529 13.9238 
-114.39 144.992 -9.67283 
-140.51 156.634 -21.9146 
-122.565 148.37 -10.1906 
-164.611 164.145 -16.2483 
-148.511 158.582 -13.9949 
-2.53243 -7.26528 -85.9839 
-111.961 129.159 16.5102 
-100.232 114.964 16.3284 
-124.237 151.541 -15.8252 
-168.467 168.722 -21.9248 
-88.4847 144.59 -18.0263 
-80.4882 144.585 -20.0163 
-174.348 158.288 -10.2718 
-272.189 126.277 -17.5383 
-170.521 156.937 -7.66154 
1.37545 -7.25923 -90.1181 
-0.527722 -11.2718 -87.9914 
5.23183 -23.2615 -92.4916 
13.8494 -9.27066 -77.9736 
1.16838 -25.1599 -90.5548 
0.619833 2.492 -90.8977 
3.74348 -19.2547 -91.5498 
1.53463 -31.2722 -91.9212 
-0.734869 -19.2178 -88.3823 
-3.62498 -3.16091 -85.0281 
-192.432 158.156 -5.76058 
-230.434 150.42 -5.86012 
-242.709 145.145 -23.9289 
-83.9605 101.615 16.7214 
-70.3729 94.9204 12.1915 
-48.9889 116.675 -35.8922 
-222.525 153.159 -25.914 
-9.20317 0.690141 -78.2544 
-234.391 150.326 -22.0654 
-51.8846 121.113 -32.027 
5.16924 -5.33761 -92.569 
-15.5851 18.9732 -69.7623 
-182.488 158.915 -7.86241 
-212.271 153.828 -5.89049 
-216.254 153.796 -3.63127 
-212.481 155.142 -0.021293 
13.8067 -17.2905 -77.8825 
13.7843 -21.2858 -79.9099 
14.1058 -3.35947 -71.8209 
13.5106 -37.2707 -85.9245 
14.4238 0.692474 -73.9938 
14.7977 4.74223 -71.9167 
-4.16836 16.7233 -75.6218 
-0.348385 6.39978 -81.3796 
